ply
format ascii 1.0
comment author Paulo Abelha (p.abelha at abdn ac uk)
element vertex 825
property float x
property float y
property float z
property int segm
property float nx
property float ny
property float nz
end_header
-0.16636 0.017674 -0.00049907 1 -0.396 -0.91807 -0.018247
-0.1663 0.017543 0.00068596 1 -0.39678 -0.90973 -0.12228
-0.1674 0.017762 0.0020136 1 -0.30743 -0.94024 -0.14637
-0.16742 0.017938 0.00091652 1 -0.30087 -0.94657 -0.11612
-0.16629 0.017341 0.0018793 1 -0.40094 -0.90124 -0.16434
-0.16738 0.017541 0.0032093 1 -0.31391 -0.92615 -0.20907
-0.16629 0.017106 0.0030768 1 -0.42292 -0.88482 -0.19553
-0.16531 0.017139 -0.00061988 1 -0.45646 -0.88963 -0.014134
-0.16742 0.017251 0.0044132 1 -0.31242 -0.91591 -0.25198
0.08693 -0.054412 -0.00015101 1 -0.2999 -0.88411 0.35835
0.090907 -0.054353 -0.001533 1 0.082829 -0.61412 -0.78486
0.091986 -0.054921 -0.0011587 1 -0.19254 -0.74512 -0.63853
0.088021 -0.05486 -0.00028214 1 -0.30943 -0.92274 -0.22979
0.08921 -0.055134 -0.00043376 1 -0.12674 -0.99165 -0.023945
0.089335 -0.054777 -0.0011697 1 -0.048717 -0.7317 -0.67988
0.090142 -0.055162 -0.00055998 1 -0.10155 -0.99437 -0.030173
0.09055 -0.055147 -0.00061636 1 -0.18252 -0.94176 -0.28244
0.091853 -0.05522 -0.00079179 1 -0.29804 -0.92481 -0.23643
0.088333 -0.054544 0.00084992 1 -0.27325 -0.83898 0.47058
0.08947 -0.05491 0.00070917 1 -0.18944 -0.93162 0.31017
0.08964 -0.054686 0.0010531 1 -0.024674 -0.67923 0.73351
0.090154 -0.055029 0.00062051 1 -0.18555 -0.97321 0.13574
0.090702 -0.055111 0.0005488 1 -0.2196 -0.96488 0.14415
0.091907 -0.055357 0.00039397 1 -0.17079 -0.92372 0.3429
0.092326 -0.05482 0.0013319 1 -0.2766 -0.75613 0.59309
0.092839 -0.055377 -0.00092016 1 -0.26071 -0.92046 -0.29116
0.093055 -0.055493 -0.00085331 1 -0.26071 -0.92046 -0.29116
0.094127 -0.056063 -0.00052143 1 -0.23178 -0.92879 -0.28919
0.093314 -0.055415 0.0010413 1 -0.28625 -0.77737 0.56014
0.094281 -0.056017 0.00060325 1 -0.25148 -0.89257 0.37427
0.094604 -0.056265 6.1952e-05 1 -0.23064 -0.89805 0.37457
0.093038 -0.055736 0.00025477 1 -0.32879 -0.9442 -0.019808
0.094155 -0.056138 0.0001182 1 -0.26522 -0.9619 0.06641
0.092447 -0.054642 0.0014787 1 -0.081892 -0.47628 0.87547
0.093101 -0.055394 -0.0009554 1 0.0098953 -0.82281 -0.56823
0.093548 -0.054502 -0.0015934 1 -0.11495 -0.46691 -0.8768
0.094358 -0.055549 -0.0011211 1 -0.14563 -0.64834 -0.7473
0.094595 -0.055079 -0.0014485 1 -0.095831 -0.43873 -0.8935
0.095499 -0.055573 -0.0012762 1 -0.052949 -0.5047 -0.86167
0.095706 -0.055546 -0.0013056 1 -0.052949 -0.5047 -0.86167
0.096172 -0.054653 -0.0017707 1 -0.020459 -0.37278 -0.9277
0.097209 -0.055213 -0.0015248 1 -0.037609 -0.46578 -0.8841
0.093526 -0.055109 0.00135 1 -0.12614 -0.55839 0.81994
0.094636 -0.055526 0.0012152 1 -0.11402 -0.65812 0.74423
0.095366 -0.056374 -3.7814e-05 1 -0.064726 -0.89615 0.439
0.096623 -0.056532 -0.00020327 1 -0.13201 -0.98967 0.055842
0.096727 -0.056223 -0.00087718 1 -0.0016918 -0.6636 -0.74808
0.095808 -0.05583 0.0010671 1 -0.22222 -0.77404 0.59286
0.096909 -0.056263 0.00093429 1 -0.34386 -0.86471 0.36611
0.094024 -0.054359 0.001889 1 -0.038843 -0.39287 0.91877
0.095019 -0.054952 0.001656 1 0.013703 -0.44944 0.8932
0.095999 -0.05555 0.0013041 1 -0.022882 -0.48738 0.87289
0.096667 -0.054506 0.0018421 1 0.0010023 -0.1857 0.98261
0.097243 -0.055209 -0.0015296 1 -0.037609 -0.46578 -0.8841
0.098744 -0.054753 -0.0017535 1 0.037298 -0.39127 -0.91952
0.098883 -0.05469 -0.0017753 1 0.041467 -0.37508 -0.92606
0.097681 -0.055094 0.0017537 1 -0.048086 -0.22655 0.97281
0.097996 -0.054582 0.0019046 1 -0.054313 -0.19913 0.97847
0.097646 -0.05668 -0.00033715 1 -0.21256 -0.97682 -0.025209
0.097883 -0.056683 -0.0003697 1 0.18223 -0.93986 -0.2889
0.098296 -0.0558 -0.0012602 1 -0.0071689 -0.58156 -0.81347
0.099334 -0.056498 -0.00057557 1 -0.28121 -0.94114 -0.18757
0.099394 -0.056363 -0.00073754 1 0.091416 -0.82636 -0.55567
0.097732 -0.056591 0.00083502 1 -0.21307 -0.96792 0.13313
0.098019 -0.056677 0.00079917 1 -0.14272 -0.98021 0.13721
0.099353 -0.056698 0.00061752 1 0.092595 -0.9957 0.0041849
0.099897 -0.055368 -0.0014017 1 0.033886 -0.50759 -0.86093
0.10043 -0.054365 -0.0018736 1 0.019405 -0.29851 -0.95421
0.099579 -0.056452 -0.00061098 1 0.16299 -0.96041 -0.22592
0.10011 -0.056618 0.00051134 1 -0.019652 -0.9995 0.024571
0.10089 -0.056124 -0.0008041 1 -0.0085681 -0.92888 -0.37028
0.10098 -0.055934 -0.00096804 1 -0.086484 -0.65652 -0.74933
0.10148 -0.05494 -0.0016633 1 -0.086081 -0.49437 -0.86498
0.10124 -0.056066 -0.0008542 1 -0.09466 -0.55484 -0.82655
0.1008 -0.056526 0.00041316 1 0.069915 -0.99124 0.11209
0.10214 -0.056524 0.00022877 1 -0.10429 -0.95827 -0.26616
0.10205 -0.056505 -0.00068173 1 -0.11369 -0.96519 -0.23555
0.098695 -0.055681 0.0016524 1 -0.00011768 -0.38758 0.92184
0.099656 -0.056284 0.0011727 1 0.13539 -0.66805 0.7317
0.098964 -0.055246 0.0017992 1 -0.0098117 -0.27089 0.96256
0.10017 -0.05549 0.001644 1 0.025201 -0.44974 0.89281
0.09933 -0.054647 0.0019519 1 0.047918 -0.17942 0.98261
0.10033 -0.055239 0.0017456 1 0.12304 -0.31273 0.94184
0.10077 -0.055513 0.0015626 1 0.16148 -0.32092 0.93324
0.10129 -0.055842 0.0012869 1 -0.0061173 -0.73417 0.67894
0.10149 -0.055541 0.001466 1 0.090351 -0.43952 0.89368
0.1022 -0.056463 0.00038094 1 0.017526 -0.89456 0.4466
0.10195 -0.0548 0.0017539 1 0.076242 -0.29795 0.95153
0.10226 -0.056088 -0.00099245 1 -0.13137 -0.56789 -0.81255
0.10254 -0.055515 -0.0014494 1 -0.11892 -0.52006 -0.84581
0.10276 -0.05567 0.0012971 1 -0.094784 -0.64974 0.75422
0.10294 -0.055396 0.0014654 1 0.039944 -0.37889 0.92458
0.10305 -0.054517 -0.0020327 1 -0.096104 -0.34307 -0.93438
0.10358 -0.054359 0.0018444 1 -0.082708 -0.24844 0.96511
0.10352 -0.056229 -0.00116 1 -0.29902 -0.83073 -0.46956
0.104 -0.056316 -0.0012211 1 -0.16041 -0.67641 -0.71884
0.10336 -0.056744 7.0671e-05 1 -0.11272 -0.98973 0.087943
0.1045 -0.057112 -6.9926e-05 1 -0.35361 -0.93409 -0.049243
0.10463 -0.056672 -0.0011966 1 -0.37461 -0.83467 -0.40373
0.10562 -0.057516 -0.00020608 1 -0.3128 -0.94469 0.098581
0.10566 -0.057254 -0.0011594 1 -0.25785 -0.73388 -0.62844
0.10675 -0.057886 -0.0003463 1 -0.24316 -0.94332 0.22587
0.10674 -0.057821 -0.00075872 1 -0.24982 -0.93264 -0.26032
0.10388 -0.056069 0.0011602 1 -0.1457 -0.62598 0.76611
0.10497 -0.056603 0.0010326 1 -0.1792 -0.70887 0.68219
0.10593 -0.057175 0.00077418 1 -0.33885 -0.85707 0.38809
0.1069 -0.057774 0.00040641 1 -0.37623 -0.89641 0.23431
0.10409 -0.055096 -0.001937 1 -0.16712 -0.41365 -0.89497
0.10512 -0.05568 -0.0019138 1 0.24056 0.38748 0.88994
0.10567 -0.054673 -0.0022879 1 0.12049 0.16608 0.97872
0.10579 -0.056971 -0.0014402 1 -0.28978 -0.7406 -0.60625
0.10615 -0.056265 -0.0019612 1 -0.21061 -0.37714 -0.90189
0.10669 -0.055259 -0.0023529 1 0.12718 0.16448 0.97815
0.10696 -0.057295 -0.0015859 1 -0.21084 -0.72932 -0.65087
0.10717 -0.056848 -0.0019605 1 -0.13366 -0.42129 -0.89702
0.1046 -0.054945 0.0017954 1 -0.11125 -0.28856 0.95098
0.10563 -0.055529 0.0017573 1 -0.084346 -0.2059 0.97493
0.10614 -0.054689 0.0019821 1 -0.10068 -0.17515 0.97938
0.10707 -0.057556 0.00078407 1 -0.29151 -0.89771 0.33035
0.10664 -0.056116 0.0016801 1 -0.088148 -0.26938 0.95899
0.107 -0.05554 0.0018987 1 -0.10185 -0.23462 0.96674
0.1071 -0.057982 -0.00039052 1 -0.20049 -0.95512 0.21805
0.10771 -0.055844 -0.0023961 1 -0.10929 -0.1848 -0.97668
0.10828 -0.054828 -0.0025275 1 -0.04841 -0.053364 -0.9974
0.10766 -0.056704 0.0015791 1 -0.093093 -0.32659 0.94057
0.10795 -0.05625 0.0017988 1 -0.098189 -0.32404 0.94094
0.10817 -0.05739 -0.0017483 1 -0.10479 -0.47425 -0.87413
0.10825 -0.057382 -0.0017597 1 -0.10479 -0.47425 -0.87413
0.10875 -0.056424 -0.0023008 1 -0.014605 -0.3418 -0.93966
0.10979 -0.057043 -0.001984 1 0.057478 -0.52227 -0.85084
0.10981 -0.056995 -0.0020096 1 0.11918 -0.41719 -0.90097
0.10797 -0.058112 -0.0005037 1 -0.13309 -0.98844 0.07259
0.10823 -0.057422 -0.0017271 1 -0.10479 -0.47425 -0.87413
0.10926 -0.058212 -0.00067602 1 -0.043238 -0.99329 -0.10725
0.10933 -0.057983 -0.0011704 1 0.051895 -0.73758 -0.67326
0.10932 -0.05541 -0.0024929 1 0.019468 -0.099744 -0.99482
0.1099 -0.05439 -0.0025406 1 0.021533 -0.0098248 -0.99972
0.11037 -0.055986 -0.0023142 1 0.063191 -0.26035 -0.96344
0.11094 -0.054971 -0.0024528 1 0.054636 -0.11936 -0.99135
0.10981 -0.058205 -0.00075214 1 -3.7729e-05 -0.99185 -0.12738
0.11068 -0.05807 -0.00087702 1 0.17229 -0.94835 -0.26638
0.11091 -0.057557 -0.001481 1 0.15299 -0.62494 -0.76554
0.11151 -0.057837 -0.0009989 1 0.23897 -0.85934 -0.45214
0.1109 -0.056273 -0.0021676 1 0.10317 -0.32014 -0.94174
0.11177 -0.055427 -0.0023212 1 0.071279 -0.23905 -0.96839
0.11144 -0.056557 -0.0019948 1 0.13497 -0.40966 -0.9022
0.11199 -0.055547 -0.0022835 1 0.037394 -0.23217 -0.97196
0.10818 -0.057965 0.00064834 1 -0.15715 -0.88537 0.43751
0.10938 -0.058223 0.00049476 1 -0.099527 -0.98789 0.11903
0.10866 -0.057294 0.0014367 1 -0.19715 -0.57782 0.792
0.10895 -0.056858 0.0016866 1 -0.078779 -0.3699 0.92573
0.10965 -0.05789 0.0011081 1 0.0045693 -0.75516 0.65552
0.11005 -0.057279 0.0015524 1 -0.0096176 -0.50905 0.86069
0.1102 -0.058291 0.00038577 1 -0.044565 -0.99845 0.033194
0.1107 -0.058274 0.00031677 1 -0.044565 -0.99845 0.033194
0.1113 -0.057435 0.0013886 1 0.086786 -0.46164 0.88281
0.11131 -0.057441 0.0013844 1 0.086786 -0.46164 0.88281
0.11217 -0.058063 0.00010757 1 0.15668 -0.98757 -0.012849
0.10728 -0.055081 0.0020024 1 -0.066223 -0.15633 0.98548
0.1083 -0.055667 0.0019713 1 -0.067983 -0.20105 0.97722
0.10892 -0.054639 0.002102 1 -0.024114 -0.050612 0.99843
0.10932 -0.056252 0.0019032 1 -0.0072513 -0.23839 0.97114
0.11033 -0.056842 0.0017454 1 0.055223 -0.33479 0.94067
0.10994 -0.055223 0.0020769 1 -0.017758 -0.079345 0.99669
0.11096 -0.05581 0.0020113 1 -0.0047861 -0.14569 0.98932
0.11157 -0.054784 0.002114 1 -0.015354 -0.041418 0.99902
0.11196 -0.0564 0.0018509 1 0.031263 -0.34588 0.93776
0.1172 -0.056771 0.0017412 1 -0.10089 -0.41465 0.90437
0.11687 -0.055074 0.0021389 1 0.076152 0.09476 -0.99258
0.11584 -0.054491 0.0021091 1 0.052198 0.042598 -0.99773
0.11614 -0.056273 0.0018664 1 -0.024326 -0.29838 0.95414
0.11512 -0.055701 0.0019827 1 0.017606 -0.17345 0.98469
0.11673 -0.056849 -0.0020409 1 0.02068 -0.42264 -0.90606
0.11648 -0.057337 -0.0017003 1 -0.043802 -0.61722 -0.78557
0.11623 -0.055263 -0.0025118 1 -0.015981 -0.083542 -0.99638
0.11567 -0.056277 -0.0022998 1 -0.051422 -0.39284 -0.91817
0.1152 -0.05468 -0.0025214 1 -0.034894 -0.051326 -0.99807
0.11463 -0.055696 -0.0023803 1 -0.074323 -0.23817 -0.96838
0.11655 -0.057748 0.0010042 1 -0.061133 -0.67571 0.73462
0.11558 -0.057147 0.0014088 1 -0.012417 -0.56157 0.82734
0.11459 -0.056551 0.0017219 1 -0.038702 -0.47506 0.8791
0.1172 -0.058162 0.00061085 1 -0.30424 -0.94717 0.10153
0.11639 -0.057971 0.00071387 1 -0.18559 -0.94588 0.26621
0.11707 -0.058225 -0.00055631 1 -0.16043 -0.98587 -0.048167
0.11625 -0.057838 -0.0012239 1 -0.047304 -0.82957 -0.5564
0.11614 -0.058172 -0.00043186 1 -0.074949 -0.9969 -0.02386
0.11518 -0.057734 0.00086986 1 -0.083109 -0.87871 0.47007
0.1139 -0.057604 0.00095152 1 -0.099524 -0.88498 0.45487
0.11376 -0.057515 0.0010549 1 0.12909 -0.79751 0.58933
0.11483 -0.058105 -0.00025564 1 -0.024005 -0.99105 -0.13131
0.11445 -0.058056 -0.00020502 1 -0.16348 -0.97277 0.16432
0.11362 -0.057684 -0.0010271 1 -0.022815 -0.9018 -0.43155
0.11356 -0.057977 -8.6732e-05 1 -0.30564 -0.94202 0.13846
0.11549 -0.05745 -0.0015601 1 -0.016934 -0.56191 -0.82703
0.11515 -0.057274 -0.0016928 1 -0.023526 -0.5527 -0.83305
0.11507 -0.057464 -0.0015011 1 -0.10198 -0.65042 -0.7527
0.1141 -0.0567 -0.0019275 1 -0.088334 -0.48426 -0.87046
0.11375 -0.057407 -0.0013238 1 -0.0812 -0.65087 -0.75483
0.11314 -0.057435 -0.0012389 1 -0.046682 -0.88442 -0.46435
0.11232 -0.057565 -0.0011209 1 0.039763 -0.88401 -0.46577
0.11253 -0.057121 -0.0015246 1 0.036275 -0.56644 -0.8233
0.11305 -0.056123 -0.0020987 1 -0.038754 -0.38732 -0.92113
0.11266 -0.057421 0.001201 1 0.030489 -0.83055 0.55611
0.11259 -0.055369 0.0020859 1 -0.0021392 -0.13284 0.99113
0.11294 -0.056998 0.0015081 1 0.087058 -0.50062 0.86128
0.1136 -0.055957 0.0019626 1 0.011606 -0.25825 0.96601
0.11246 -0.054471 -0.0024536 1 -0.0122 -0.097609 -0.99515
0.1136 -0.055114 -0.0024084 1 -0.054084 -0.16334 -0.98509
0.11319 -0.054345 0.0021304 1 0.015806 -0.0067228 0.99985
0.11416 -0.055024 0.0020864 1 0.025106 -0.079628 0.99651
0.11387 -0.054733 0.0021139 1 0.016791 -0.068563 0.99751
0.12192 -0.058017 0.001533 1 0.028883 -0.47884 0.87743
0.12163 -0.058455 0.0012043 1 -0.0013653 -0.7227 0.69116
0.12217 -0.055365 0.0021389 1 0.0098531 -0.038631 0.9992
0.12155 -0.05639 0.0020612 1 -0.0021408 -0.14898 0.98884
0.12114 -0.054779 0.0021891 1 0.015978 -0.044066 0.9989
0.12054 -0.055803 0.0021318 1 -0.0071212 -0.098609 0.9951
0.12093 -0.057421 0.0018241 1 0.0075247 -0.37818 0.9257
0.11992 -0.056832 0.001952 1 -0.055782 -0.31396 0.9478
0.12041 -0.058216 0.0013599 1 -0.092641 -0.68997 0.71788
0.12024 -0.058472 0.0011235 1 -0.092641 -0.68997 0.71788
0.11926 -0.057875 0.0014361 1 -0.17861 -0.57322 0.7997
0.11952 -0.055218 0.0021888 1 -0.013057 -0.07755 0.9969
0.1185 -0.054632 0.0022289 1 -0.022807 -0.035691 0.9991
0.11891 -0.056246 0.0020229 1 -0.072194 -0.24716 0.96628
0.11789 -0.055658 0.0021094 1 -0.051382 -0.22175 0.97375
0.11825 -0.057284 0.0015988 1 -0.14292 -0.52467 0.83922
0.11796 -0.057109 0.0016518 1 -0.047316 -0.32327 0.94512
0.12214 -0.054527 -0.0024023 1 0.014355 -0.018095 -0.99973
0.122 -0.057147 -0.0021945 1 -0.01062 -0.25295 -0.96742
0.12118 -0.059123 0.00010542 1 -0.12952 -0.99015 -0.053135
0.12101 -0.059131 -0.00075363 1 -0.21012 -0.96594 -0.15103
0.12146 -0.058153 -0.0018217 1 -0.018801 -0.51733 -0.85558
0.12108 -0.058955 -0.0010755 1 0.094049 -0.87281 -0.4789
0.12064 -0.05895 -0.0010155 1 -0.21012 -0.96594 -0.15103
0.12154 -0.055549 -0.002379 1 -0.0024706 -0.062438 -0.99805
0.12097 -0.056566 -0.0022716 1 -0.015766 -0.17207 -0.98496
0.1199 -0.058907 0.00027244 1 -0.13933 -0.9398 0.31202
0.11871 -0.058613 0.00042167 1 -0.15313 -0.92466 0.34864
0.12041 -0.057577 -0.0020071 1 -0.022466 -0.26286 -0.96457
0.1199 -0.058573 -0.0013629 1 -0.092214 -0.60711 -0.78925
0.1198 -0.058832 -0.00090606 1 -0.23156 -0.95963 -0.15964
0.11885 -0.057997 -0.001543 1 -0.17024 -0.58251 -0.7948
0.11862 -0.058552 -0.00075509 1 -0.24049 -0.92845 -0.28309
0.12098 -0.055228 -0.002401 1 -0.0037295 -0.053249 -0.99857
0.12058 -0.056351 -0.0023013 1 0.022544 -0.16987 -0.98521
0.12051 -0.054967 -0.0024222 1 0.00021306 -0.03959 -0.99922
0.11993 -0.055986 -0.0023542 1 -0.064471 -0.12676 -0.98984
0.11939 -0.056949 -0.0021144 1 -0.077368 -0.3406 -0.93702
0.11932 -0.056972 -0.0021037 1 -0.077368 -0.3406 -0.93702
0.11756 -0.058273 0.0005655 1 -0.29812 -0.94953 0.097556
0.1178 -0.05742 -0.0017171 1 -0.026665 -0.43015 -0.90237
0.11742 -0.058283 -0.00060292 1 -0.14733 -0.98547 0.084503
0.11947 -0.054386 -0.0024884 1 0.030102 -0.032723 -0.99901
0.11889 -0.055407 -0.0024496 1 0.016286 -0.14854 -0.98877
0.11785 -0.054825 -0.0025149 1 0.0045156 -0.044184 -0.99901
0.11832 -0.05642 -0.0022469 1 -0.021951 -0.27756 -0.96046
0.11796 -0.057113 -0.001911 1 -0.026665 -0.43015 -0.90237
0.11735 -0.057177 -0.0018254 1 -0.017045 -0.48169 -0.87617
0.11727 -0.055843 -0.0024104 1 -0.00018937 -0.27886 -0.96033
0.12688 -0.056674 0.0022254 1 -0.060575 -0.20539 0.9768
0.12646 -0.055065 0.0023098 1 0.032975 0.007303 -0.99943
0.12586 -0.056089 0.0022469 1 -0.049047 -0.08154 0.99546
0.12625 -0.057709 0.0019064 1 0.010447 -0.34216 0.93958
0.12523 -0.057119 0.0020508 1 -0.013781 -0.23274 0.97244
0.12723 -0.058304 0.0016092 1 0.0090443 -0.59428 0.80421
0.12719 -0.058277 0.0016246 1 0.04967 -0.53246 0.845
0.12659 -0.059213 0.00055743 1 -0.12238 -0.99013 0.068378
0.12619 -0.059193 0.00061001 1 -0.12238 -0.99013 0.068378
0.12607 -0.057983 0.0017654 1 -0.0583 -0.51007 0.85815
0.12555 -0.058758 0.0012333 1 0.024372 -0.68697 0.72627
0.12496 -0.057547 0.0018978 1 -0.067545 -0.32984 0.94162
0.12458 -0.058159 0.001598 1 -0.058352 -0.51235 0.85679
0.12529 -0.059107 0.00072905 1 -0.091168 -0.96658 0.23962
0.12406 -0.05892 0.00089103 1 -0.060165 -0.82901 0.55598
0.12382 -0.059227 0.00047039 1 -0.11427 -0.93883 0.32486
0.12304 -0.058711 0.001022 1 -0.14292 -0.82269 0.55023
0.12713 -0.057314 -0.0019705 1 -0.015162 -0.39434 -0.91884
0.12686 -0.055836 -0.0022826 1 -0.037278 -0.16674 -0.9853
0.12629 -0.056848 -0.0020548 1 -0.02901 -0.27629 -0.96064
0.12588 -0.0576 -0.0017886 1 0.0021075 -0.3765 -0.92642
0.12582 -0.055254 -0.0023308 1 -0.010917 -0.0711 -0.99741
0.12525 -0.056271 -0.0022023 1 0.042221 -0.21494 -0.97571
0.12682 -0.058426 -0.0013672 1 -0.013133 -0.59239 -0.80555
0.12652 -0.059088 -0.00062682 1 0.16049 -0.93747 -0.30887
0.12589 -0.059162 -0.0005386 1 0.0085495 -0.98804 -0.15399
0.12575 -0.057855 -0.0016789 1 0.059618 -0.38134 -0.92251
0.12525 -0.058849 -0.0010273 1 0.12857 -0.65824 -0.74175
0.12511 -0.059206 -0.00042873 1 0.091196 -0.99118 -0.096167
0.12554 -0.057739 -0.0017349 1 0.053939 -0.48348 -0.87369
0.12468 -0.057283 -0.0019786 1 0.066272 -0.33009 -0.94162
0.12414 -0.058289 -0.001574 1 0.10565 -0.48972 -0.86546
0.12409 -0.05839 -0.0015109 1 0.093703 -0.50432 -0.85842
0.12377 -0.059274 -0.00024212 1 0.03687 -0.97765 0.207
0.12372 -0.05926 -0.00032797 1 0.03687 -0.97765 0.207
0.1227 -0.058795 -0.0013038 1 0.087367 -0.81189 -0.57724
0.12542 -0.054482 0.0022899 1 0.036123 -0.017847 -0.99919
0.12482 -0.055506 0.0022516 1 0.052939 0.040236 -0.99779
0.1238 -0.054924 0.0022141 1 0.047862 0.024807 -0.99855
0.12277 -0.054341 0.002184 1 -0.015844 -0.01432 0.99977
0.12234 -0.055054 0.0021549 1 0.0098531 -0.038631 0.9992
0.12421 -0.056533 0.0021144 1 -0.037779 -0.13339 0.99034
0.12319 -0.055949 0.0021255 1 -0.028747 -0.070216 0.99712
0.12395 -0.056971 0.0020137 1 -0.071729 -0.22274 0.97223
0.12358 -0.057567 0.0018079 1 -0.031412 -0.30684 0.95124
0.12274 -0.055691 0.0021275 1 0.070452 0.11335 -0.99105
0.12306 -0.056173 0.0021034 1 -0.045699 -0.12659 0.9909
0.12258 -0.056978 0.0019612 1 -0.027475 -0.25545 0.96643
0.12479 -0.054672 -0.0023781 1 0.010535 -0.020177 -0.99974
0.1242 -0.055693 -0.0023381 1 0.035315 -0.069349 -0.99697
0.12317 -0.055112 -0.0023919 1 0.015 -0.018989 -0.99971
0.12362 -0.056711 -0.0022412 1 0.053415 -0.17008 -0.98398
0.12306 -0.057722 -0.0019762 1 0.045953 -0.41476 -0.90877
0.12258 -0.056132 -0.0023618 1 0.0037158 -0.081043 -0.9967
0.12241 -0.059218 -5.8957e-05 1 0.016649 -0.99958 -0.023802
0.12255 -0.058719 -0.0013826 1 0.053701 -0.78984 -0.61095
0.1225 -0.058826 -0.0012749 1 0.053701 -0.78984 -0.61095
0.13172 -0.054519 -0.002229 1 0.15589 -0.096321 -0.98307
0.13175 -0.055357 0.0022539 1 0.17716 -0.12052 0.97677
0.1321 -0.056987 0.0016605 1 0.3497 -0.51444 0.78298
0.13118 -0.056409 0.0021878 1 0.17899 -0.27807 0.94374
0.13142 -0.058035 0.0010481 1 0.07867 -0.87557 0.47664
0.13051 -0.057416 0.0018907 1 0.20211 -0.5393 0.8175
0.13143 -0.058042 0.0010338 1 0.6237 -0.71804 0.3089
0.1317 -0.058336 -0.00017818 1 0.65956 -0.7516 0.0090992
0.13141 -0.058049 0.0010368 1 0.07867 -0.87557 0.47664
0.12981 -0.058468 0.0011469 1 0.1121 -0.8309 0.54501
0.12963 -0.058351 0.0012919 1 0.16493 -0.75594 0.63352
0.13111 -0.058124 -0.0011645 1 0.47661 -0.72958 -0.49046
0.13091 -0.058702 -5.5299e-05 1 0.54094 -0.84096 0.012677
0.13029 -0.05887 3.6181e-05 1 0.054131 -0.99809 0.02968
0.12936 -0.059053 0.00017033 1 0.30769 -0.95143 -0.010462
0.12853 -0.059196 0.00029107 1 -0.0042884 -0.99987 -0.01574
0.13074 -0.05477 0.0023797 1 0.050428 -0.01726 0.99858
0.13015 -0.05579 0.0023962 1 0.061219 -0.092174 0.99386
0.12923 -0.055271 0.0024091 1 -0.019552 -0.012365 0.99973
0.1299 -0.056198 0.0023553 1 0.04056 -0.11583 0.99244
0.12953 -0.056818 0.0022489 1 0.034239 -0.31002 0.95011
0.12888 -0.057858 0.0017876 1 0.10838 -0.51889 0.84794
0.12851 -0.056231 0.0023477 1 -0.033033 -0.12207 0.99197
0.12789 -0.057261 0.0021259 1 0.00094821 -0.34562 0.93838
0.12808 -0.054625 0.0023523 1 0.030282 -0.01591 -0.99941
0.12749 -0.055648 0.0023312 1 0.043102 0.02836 -0.99867
0.12854 -0.058367 0.0014427 1 0.096613 -0.63219 0.76876
0.12817 -0.058912 0.0010137 1 0.02576 -0.79498 0.60608
0.12792 -0.059236 0.0003761 1 -0.20197 -0.97939 0.0013737
0.13197 -0.05728 -0.0014457 1 0.30432 -0.44497 -0.84225
0.13221 -0.056109 -0.0018595 1 0.23988 -0.27187 -0.93196
0.13164 -0.057122 -0.0016533 1 0.20345 -0.41532 -0.88663
0.13127 -0.057842 -0.0013268 1 0.28225 -0.71149 -0.64352
0.13114 -0.05554 -0.0021962 1 0.13351 -0.12586 -0.98302
0.13056 -0.056557 -0.0020861 1 0.12532 -0.24827 -0.96055
0.12967 -0.058646 -0.0010748 1 0.47715 -0.75434 -0.45089
0.13 -0.057568 -0.0018215 1 0.13626 -0.47894 -0.86721
0.12949 -0.058565 -0.0012106 1 0.099846 -0.80318 -0.58732
0.12942 -0.058718 -0.0010389 1 -0.14951 -0.93358 -0.3257
0.12795 -0.059004 -0.00082627 1 -0.32813 -0.93449 -0.13809
0.13009 -0.054961 -0.0023309 1 0.060079 -0.070143 -0.99573
0.1295 -0.055982 -0.0022883 1 0.066415 -0.12957 -0.98934
0.12935 -0.054547 -0.0023871 1 0.039422 -0.055886 -0.99766
0.12921 -0.055818 -0.0023161 1 0.043009 -0.1219 -0.99161
0.12906 -0.054381 -0.002405 1 0.039422 -0.055886 -0.99766
0.12847 -0.055401 -0.0023696 1 0.0045877 -0.079544 -0.99682
0.12893 -0.056998 -0.0021418 1 0.041398 -0.26017 -0.96467
0.12839 -0.058003 -0.0017446 1 -0.0073756 -0.51907 -0.8547
0.12856 -0.056793 -0.0021874 1 -0.01678 -0.16698 -0.98582
0.12789 -0.056418 -0.0022478 1 -0.033141 -0.16751 -0.98531
0.12743 -0.057243 -0.0020149 1 -0.033167 -0.31044 -0.95002
0.12743 -0.054819 -0.0023972 1 -0.026669 -0.050322 -0.99838
0.12792 -0.058988 -0.00084775 1 -0.32813 -0.93449 -0.13809
0.12792 -0.059007 -0.00082056 1 -0.32813 -0.93449 -0.13809
0.13476 -0.054549 0.00059855 1 0.88166 -0.4631 -0.090651
0.13421 -0.055561 0.00084197 1 0.86349 -0.48409 0.1416
0.13346 -0.055022 0.0018208 1 0.37316 -0.20686 0.90441
0.13234 -0.054337 0.0022317 1 0.1981 -0.10388 0.97466
0.13302 -0.055461 0.0018996 1 0.26557 -0.13724 0.95427
0.13478 -0.054577 0.00043444 1 0.8879 -0.43265 -0.15636
0.13426 -0.05563 0.00054783 1 0.85778 -0.51222 -0.042915
0.13461 -0.054597 -0.00057973 1 0.89306 -0.42214 -0.15567
0.13409 -0.05567 -0.00061459 1 0.88454 -0.43487 -0.16875
0.13451 -0.054565 -0.00071777 1 0.88795 -0.41627 -0.19561
0.13439 -0.054945 -0.00068471 1 0.88795 -0.41627 -0.19561
0.13397 -0.055631 -0.00088423 1 0.6515 -0.30559 -0.69438
0.13316 -0.055266 -0.0016904 1 0.53337 -0.28213 -0.79745
0.13281 -0.055089 -0.0018938 1 0.2787 -0.17406 -0.94447
0.13359 -0.056587 0.00073248 1 0.60212 -0.44634 0.662
0.13272 -0.055957 0.0018805 1 0.26811 -0.26623 0.92587
0.1325 -0.05582 0.0019841 1 0.26811 -0.26623 0.92587
0.13361 -0.056603 0.00067714 1 0.84115 -0.5408 0.0027217
0.13352 -0.056704 0.00069326 1 0.7526 -0.65639 0.05242
0.13268 -0.057414 0.00083759 1 0.50271 -0.76992 0.39307
0.13352 -0.056695 -0.0004956 1 0.83623 -0.5428 -0.078017
0.13337 -0.056652 -0.00086578 1 0.59081 -0.52869 -0.60945
0.13304 -0.057323 -0.00040291 1 0.75748 -0.65235 0.025752
0.13276 -0.057601 -0.0003535 1 0.69585 -0.71798 0.017101
0.13268 -0.05634 -0.0015812 1 0.48977 -0.36059 -0.79379
0.04343 -0.04928 -0.00034648 1 -0.39666 -0.91614 -0.057829
0.044527 -0.049487 0.00069938 1 -0.24197 -0.94758 0.20869
0.044574 -0.049635 -0.00048852 1 -0.25102 -0.96774 -0.021477
0.045839 -0.049778 -0.00065587 1 -0.094763 -0.97079 -0.22043
0.044762 -0.049537 0.00066932 1 -0.24197 -0.94758 0.20869
0.04599 -0.049745 0.00050984 1 -0.10289 -0.94414 0.31307
0.047078 -0.049759 -0.00082622 1 -0.11948 -0.96071 -0.25053
0.047202 -0.049747 -0.00084356 1 0.70249 -0.64969 -0.29055
0.047168 -0.049809 -0.00082341 1 -0.40598 -0.91338 -0.030289
0.048613 -0.049632 -0.0010414 1 -0.31628 -0.83895 -0.44287
0.048732 -0.049387 -0.0012369 1 -0.015947 -0.4905 -0.87129
0.047248 -0.049899 0.00034394 1 -0.32122 -0.9469 0.014147
0.04763 -0.049939 0.00029336 1 -0.19063 -0.98163 -0.0084119
0.048508 -0.050049 0.00017767 1 -0.21711 -0.93249 -0.28867
0.049156 -0.049614 -0.0011164 1 -0.064714 -0.48781 -0.87055
0.049729 -0.050267 1.9328e-05 1 -0.15242 -0.98564 0.072639
0.049804 -0.049959 -0.00092059 1 -0.12528 -0.86242 -0.49045
0.050752 -0.050402 -0.00011502 1 -0.18817 -0.96308 0.19252
0.049989 -0.049578 -0.0012319 1 -0.039361 -0.52439 -0.85057
0.05097 -0.049316 -0.0013767 1 0.043956 -0.39953 -0.91566
0.050991 -0.050416 -0.00014709 1 0.054555 -0.97379 -0.22082
0.05138 -0.049533 -0.0012453 1 0.12469 -0.46875 -0.87449
0.047377 -0.049747 0.00070036 1 -0.013293 -0.80568 0.5922
0.049011 -0.049396 0.0012697 1 -0.026974 -0.54065 0.84081
0.049547 -0.049561 0.0012031 1 -0.084131 -0.66205 0.74472
0.05006 -0.049882 0.00095666 1 -0.15493 -0.85545 0.49417
0.050166 -0.049733 0.0011255 1 -0.042284 -0.58228 0.81189
0.051364 -0.049993 0.00097222 1 0.02116 -0.87417 0.48517
0.051755 -0.049421 0.0014934 1 0.086431 -0.50428 0.8592
0.052408 -0.05029 -0.00034615 1 0.048432 -0.95228 -0.30137
0.052486 -0.050094 -0.00066812 1 0.098163 -0.6364 -0.76509
0.052785 -0.050231 -0.00040017 1 0.1612 -0.89426 -0.41751
0.053933 -0.049975 -0.00056766 1 0.053187 -0.94741 -0.31558
0.054088 -0.049661 -0.00081292 1 0.11909 -0.57582 -0.80885
0.054415 -0.049827 -0.00063964 1 0.0086748 -0.92256 -0.38575
0.055532 -0.04953 -0.00080455 1 -0.046547 -0.64069 -0.76639
0.056145 -0.04948 -0.00089053 1 -0.14283 -0.61972 -0.77172
0.056854 -0.04957 -0.00098391 1 -0.15579 -0.56525 -0.81007
0.052782 -0.050089 0.0007822 1 -0.078631 -0.94711 0.31114
0.053963 -0.050155 0.0006232 1 0.025243 -0.99933 0.026394
0.054388 -0.049572 0.0013772 1 -0.099994 -0.66141 0.74333
0.055206 -0.050217 -0.00014827 1 0.14503 -0.89897 -0.41329
0.05544 -0.050283 0.00042629 1 -0.35084 -0.93577 0.035337
0.055332 -0.050181 0.00076716 1 -0.14181 -0.89849 0.41545
0.056507 -0.050415 0.00028567 1 0.1585 -0.98513 -0.066288
0.05674 -0.049806 -0.00078415 1 -0.17546 -0.79527 -0.5803
0.055764 -0.049586 0.0015411 1 -0.15086 -0.6536 0.74166
0.056902 -0.049952 0.0014003 1 -0.21112 -0.7973 0.56546
0.057065 -0.049708 0.0015845 1 0.00066733 -0.48754 0.8731
0.05812 -0.049711 -0.0011514 1 -0.14867 -0.74121 -0.6546
0.058272 -0.049393 -0.0014345 1 -0.12326 -0.55298 -0.82403
0.058889 -0.049724 -0.0012561 1 -0.085846 -0.57487 -0.81373
0.059455 -0.049729 -0.0013332 1 -0.085846 -0.57487 -0.81373
0.060846 -0.049507 -0.0015325 1 0.0279 -0.48798 -0.87241
0.060944 -0.049477 -0.0015473 1 0.054579 -0.46734 -0.88239
0.057838 -0.050368 -0.00026392 1 -0.12749 -0.93416 -0.33332
0.058019 -0.050429 7.9436e-05 1 -0.025362 -0.97889 0.2028
0.059196 -0.050418 -8.2148e-05 1 0.015675 -0.99837 -0.054833
0.059344 -0.049963 -0.0011064 1 -0.1575 -0.84926 -0.50394
0.057634 -0.050066 0.0013049 1 -0.14881 -0.93675 0.31678
0.057984 -0.050324 0.00080129 1 -0.1366 -0.96934 0.20428
0.058169 -0.050092 0.0012328 1 0.14322 -0.83444 0.53217
0.059495 -0.050127 0.0010528 1 -0.042581 -0.95002 0.30928
0.060243 -0.05023 0.00095462 1 -0.10561 -0.94922 0.29636
0.060491 -0.050509 -0.00025548 1 -0.14301 -0.9897 -0.0059277
0.061799 -0.050574 -0.00043195 1 -0.17916 -0.96316 -0.20056
0.061994 -0.050109 -0.001094 1 -0.090859 -0.57185 -0.81531
0.060737 -0.050307 0.00089011 1 -0.18771 -0.95245 0.24002
0.061923 -0.05059 0.00073949 1 -0.18552 -0.84558 0.50057
0.059683 -0.049863 0.0013694 1 0.082594 -0.59477 0.79964
0.061356 -0.04941 0.0017393 1 0.026736 -0.29467 0.95522
0.062358 -0.050001 0.0015583 1 -0.25278 -0.64395 0.7221
0.062609 -0.049614 0.0017934 1 -0.090053 -0.32921 0.93995
0.062947 -0.050923 -0.00057473 1 -0.37033 -0.91525 -0.15867
0.063043 -0.050686 -0.00094206 1 -0.23415 -0.52404 -0.81888
0.063542 -0.049693 -0.0016364 1 -0.17389 -0.39505 -0.90205
0.063998 -0.051441 -0.00069743 1 -0.42749 -0.8849 -0.18493
0.064067 -0.051271 -0.00096334 1 -0.22191 -0.57354 -0.78855
0.064569 -0.050276 -0.0016355 1 -0.13311 -0.44136 -0.8874
0.063003 -0.051056 0.00061057 1 -0.33984 -0.91255 0.2275
0.064069 -0.051548 0.00048476 1 -0.24633 -0.95663 0.15547
0.064561 -0.051528 -0.00077082 1 -0.063673 -0.97905 -0.1934
0.065341 -0.051446 -0.00088101 1 0.053228 -0.94182 -0.33187
0.065625 -0.050851 -0.0014294 1 -0.030746 -0.52804 -0.84866
0.066531 -0.051321 -0.0010489 1 -0.060961 -0.90235 -0.42667
0.065069 -0.051683 0.00035361 1 -0.14666 -0.98892 0.022874
0.065341 -0.051678 0.000316 1 -0.07363 -0.9887 -0.1306
0.066652 -0.05174 0.00013926 1 -0.44245 -0.89672 0.011533
0.066712 -0.051417 -0.00098476 1 0.057842 -0.81589 -0.57531
0.063367 -0.050589 0.0014341 1 -0.29166 -0.66165 0.69076
0.063604 -0.050231 0.0016824 1 -0.10336 -0.4011 0.91018
0.064356 -0.051185 0.0011497 1 -0.096983 -0.72588 0.68095
0.064711 -0.050652 0.001548 1 -0.039882 -0.51201 0.85806
0.064034 -0.049546 0.00196 1 -0.057907 -0.27806 0.95882
0.065039 -0.050136 0.0017963 1 0.0061182 -0.39199 0.91995
0.065936 -0.050863 0.001389 1 0.027731 -0.48412 0.87456
0.066346 -0.050933 0.0013359 1 -0.0062387 -0.63852 0.76958
0.066992 -0.051334 0.0010553 1 -0.19811 -0.82596 0.52777
0.066152 -0.049849 -0.0019218 1 -0.05679 -0.31539 -0.94726
0.066759 -0.051319 -0.0010801 1 0.057842 -0.81589 -0.57531
0.067205 -0.050425 -0.0017321 1 -0.073618 -0.46278 -0.88341
0.067144 -0.051106 0.0012338 1 -0.018702 -0.51101 0.85937
0.066676 -0.049693 0.0019106 1 -0.027073 -0.32165 0.94647
0.067826 -0.051975 -0.00035264 1 -0.21929 -0.89182 -0.39568
0.06799 -0.05203 -3.2034e-05 1 -0.12412 -0.91121 0.39279
0.067935 -0.051942 0.00044228 1 -0.14516 -0.90614 0.3973
0.067749 -0.049418 -0.0020906 1 -0.022713 -0.24053 -0.97038
0.067679 -0.050284 0.0017319 1 -0.07594 -0.39384 0.91603
0.068094 -0.051339 -0.0012619 1 -0.12278 -0.75053 -0.64933
0.068264 -0.050999 -0.0014923 1 -0.037234 -0.41649 -0.90838
0.068797 -0.049996 -0.0019426 1 -0.06833 -0.36233 -0.92954
0.068857 -0.05132 -0.0013671 1 -0.087557 -0.43888 -0.89427
0.069458 -0.051306 -0.0014499 1 -0.11558 -0.41495 -0.90247
0.069841 -0.050575 -0.0018187 1 -0.1302 -0.37136 -0.91931
0.069075 -0.052213 -0.00017305 1 -0.065021 -0.99437 -0.083632
0.06932 -0.051574 -0.0012884 1 -0.087557 -0.43888 -0.89427
0.070371 -0.049572 -0.0022864 1 -0.10295 -0.27062 -0.95717
0.070751 -0.051399 -0.001623 1 -0.2487 -0.53539 -0.80716
0.070875 -0.051156 -0.0017693 1 -0.14169 -0.35096 -0.92561
0.071504 -0.051508 -0.0017218 1 -0.15261 -0.35185 -0.92353
0.070336 -0.052363 -0.00033933 1 -0.24639 -0.95983 0.13426
0.070392 -0.052144 -0.00095455 1 -0.090801 -0.77141 -0.62983
0.071013 -0.052435 -0.00042905 1 -0.21701 -0.96783 0.12733
0.071595 -0.052513 -0.00050558 1 -0.14987 -0.98817 0.03263
0.071912 -0.051736 -0.0016923 1 -0.093444 -0.462 -0.88194
0.071409 -0.050153 -0.0022107 1 -0.089373 -0.27946 -0.95599
0.068289 -0.051459 0.0010914 1 -0.1384 -0.77056 0.62216
0.069448 -0.051788 0.00094628 1 -0.17352 -0.86643 0.46818
0.068684 -0.050875 0.0015703 1 -0.042262 -0.4581 0.88789
0.069332 -0.049836 0.001964 1 -0.060295 -0.22594 0.97227
0.069674 -0.051469 0.0013035 1 -0.001212 -0.55342 0.8329
0.070348 -0.050424 0.0018776 1 -0.019196 -0.20418 0.97874
0.069535 -0.0495 0.0020287 1 -0.016364 -0.14409 0.98943
0.07061 -0.052061 0.00079844 1 -0.22562 -0.90502 0.36061
0.070631 -0.052074 0.00078777 1 -0.22562 -0.90502 0.36061
0.071804 -0.052377 0.00064783 1 -0.11123 -0.88667 0.44883
0.071355 -0.051013 0.0017378 1 -0.0014731 -0.29977 0.95401
0.071484 -0.050805 0.001815 1 -0.0014731 -0.29977 0.95401
0.07097 -0.049393 0.0020886 1 -0.014517 -0.1099 0.99384
0.071989 -0.04998 0.0020284 1 0.0049552 -0.17529 0.9845
0.072441 -0.050735 -0.0021735 1 -0.087771 -0.24344 -0.96594
0.073019 -0.049718 -0.0022993 1 0.025012 -0.072494 -0.99706
0.07235 -0.051607 0.0014967 1 -0.14421 -0.6072 0.78135
0.072614 -0.051185 0.0016761 1 0.010769 -0.34043 0.94021
0.072994 -0.05057 0.0018688 1 0.045993 -0.23287 0.97142
0.073609 -0.049541 0.0020197 1 -0.0014743 -0.093237 0.99564
0.072861 -0.052655 -0.00067297 1 -0.14977 -0.97807 -0.14477
0.072983 -0.052307 -0.0013719 1 -0.04687 -0.7081 -0.70455
0.07391 -0.052766 -0.00081192 1 -0.18207 -0.96337 -0.19692
0.073334 -0.051591 -0.0019686 1 -0.15153 -0.50568 -0.84931
0.073478 -0.051315 -0.0021019 1 0.018572 -0.22376 -0.97447
0.07405 -0.0503 -0.0022647 1 0.0027527 -0.085388 -0.99634
0.07381 -0.051495 -0.0020377 1 0.023572 -0.24587 -0.96902
0.074835 -0.050739 -0.0022089 1 0.038312 -0.21466 -0.97594
0.074539 -0.051889 -0.0018582 1 0.030423 -0.3117 -0.94969
0.075088 -0.05088 -0.0021875 1 0.027316 -0.21188 -0.97691
0.075468 -0.052804 -0.0010235 1 -0.081929 -0.89419 -0.44012
0.075628 -0.052454 -0.0014061 1 0.034878 -0.57359 -0.8184
0.076145 -0.051455 -0.0019709 1 0.011126 -0.37969 -0.92505
0.076185 -0.052737 -0.0011245 1 0.0024761 -0.65674 -0.75412
0.076889 -0.05267 -0.0012235 1 -0.045905 -0.64122 -0.76598
0.077209 -0.052028 -0.0017013 1 -0.039662 -0.46408 -0.8849
0.073001 -0.05264 0.00049492 1 -0.19948 -0.95105 0.23602
0.074183 -0.052929 0.00034494 1 -0.33929 -0.94014 0.031795
0.07411 -0.052862 -0.00064668 1 -0.20784 -0.97815 0.0054801
0.073327 -0.052205 0.0011334 1 -0.09209 -0.61911 0.77988
0.074297 -0.052805 0.00071406 1 -0.071965 -0.74233 0.66616
0.073771 -0.051518 0.0015312 1 -0.089321 -0.44663 0.89025
0.074801 -0.052075 0.0014132 1 -0.23535 -0.53142 0.81376
0.0747 -0.053086 0.00028061 1 -0.33929 -0.94014 0.031795
0.075344 -0.053253 0.00019917 1 -0.25513 -0.93435 -0.2488
0.076612 -0.053392 3.1467e-05 1 -0.025168 -0.99795 0.058779
0.076729 -0.053016 -0.00086182 1 -0.044125 -0.86294 -0.50338
0.075802 -0.052682 0.001301 1 -0.12442 -0.47955 0.86865
0.076944 -0.053038 0.0011591 1 -0.27106 -0.85682 0.43862
0.074833 -0.049385 -0.0022637 1 0.0066707 -0.0098449 -0.99993
0.075671 -0.049862 -0.0022653 1 0.00049163 -0.037473 -0.9993
0.076706 -0.050443 -0.0022139 1 -0.03732 -0.10956 -0.99328
0.073997 -0.05116 0.0016866 1 -0.018164 -0.27129 0.96233
0.074628 -0.050128 0.0019592 1 -0.060781 -0.13221 0.98936
0.075013 -0.051748 0.0016035 1 -0.15643 -0.4141 0.89669
0.075655 -0.050711 0.001956 1 -0.099512 -0.15157 0.98342
0.076032 -0.052334 0.0015464 1 -0.12442 -0.47955 0.86865
0.07668 -0.051295 0.0019442 1 -0.075552 -0.22261 0.97197
0.077021 -0.052929 0.001269 1 -0.01221 -0.51786 0.85538
0.076267 -0.049685 0.0020856 1 0.061929 0.043569 -0.99713
0.077288 -0.049425 -0.0023014 1 0.047712 -0.0049437 0.99885
0.077742 -0.051024 -0.0021528 1 -0.077483 -0.26818 -0.96025
0.078307 -0.050012 -0.0023616 1 -0.044202 -0.059653 -0.99724
0.078252 -0.05264 -0.0014112 1 -0.02963 -0.5397 -0.84134
0.078271 -0.052601 -0.0014472 1 -0.02963 -0.5397 -0.84134
0.078343 -0.052639 -0.0014236 1 -0.050341 -0.55179 -0.83246
0.077655 -0.053452 -0.00010876 1 -0.15061 -0.98521 0.081685
0.077921 -0.053454 -0.00014519 1 -0.035161 -0.97067 0.23784
0.079211 -0.053554 -0.00031754 1 -0.073554 -0.98731 -0.14073
0.079353 -0.053168 -0.0010449 1 -0.07397 -0.78034 -0.62097
0.077309 -0.053111 0.0011122 1 -0.090162 -0.94857 0.30345
0.078185 -0.053225 0.00099714 1 -0.066744 -0.87128 0.48623
0.079371 -0.053505 0.00084612 1 -0.19051 -0.88507 0.42468
0.080212 -0.053586 -0.00045321 1 0.10402 -0.91206 -0.39665
0.07878 -0.051605 -0.00207 1 -0.079011 -0.3913 -0.91686
0.079338 -0.050594 -0.0023345 1 0.0014643 -0.1051 -0.99446
0.079636 -0.052573 -0.0016032 1 -0.054431 -0.62006 -0.78266
0.079837 -0.05218 -0.0018489 1 0.035579 -0.3718 -0.92763
0.080388 -0.05117 -0.002164 1 0.038537 -0.2394 -0.97016
0.079928 -0.049573 -0.0023582 1 0.01958 0.025469 -0.99948
0.080964 -0.050154 -0.0022989 1 0.0032894 -0.052072 -0.99864
0.080347 -0.052451 -0.0017055 1 0.020352 -0.44572 -0.89494
0.081226 -0.052142 -0.0018384 1 -0.0062198 -0.40766 -0.91311
0.08144 -0.051746 -0.00198 1 0.028549 -0.27568 -0.96083
0.081748 -0.051914 -0.0019192 1 -0.030638 -0.31333 -0.94915
0.082 -0.050735 -0.0022309 1 -0.017006 -0.17525 -0.98438
0.08055 -0.053565 -0.00050039 1 0.10402 -0.91206 -0.39665
0.08091 -0.052749 -0.0015152 1 0.033872 -0.44145 -0.89665
0.081945 -0.05348 -0.00069453 1 0.011988 -0.98731 -0.15833
0.082009 -0.053311 -0.00098427 1 0.0026229 -0.66692 -0.74512
0.080621 -0.053674 0.00068209 1 -0.095959 -0.98417 0.14902
0.08199 -0.05363 0.00049286 1 -0.22745 -0.96944 0.091905
0.077694 -0.051883 0.0018501 1 -0.073869 -0.31823 0.94513
0.077299 -0.050267 0.0021259 1 -0.032514 -0.040865 0.99864
0.077462 -0.049993 0.0021519 1 0.04438 0.0092857 -0.99897
0.078232 -0.051006 0.0020878 1 -0.069318 -0.19483 0.97838
0.077744 -0.050517 0.0021347 1 -0.066003 -0.072586 0.99518
0.078931 -0.049825 0.0022032 1 -0.018122 -0.016239 0.9997
0.078695 -0.052475 0.0016551 1 -0.074838 -0.45741 0.8861
0.079688 -0.053068 0.0014097 1 0.017122 -0.61646 0.7872
0.079191 -0.051686 0.0019842 1 -0.093189 -0.30856 0.94663
0.0802 -0.05228 0.0018704 1 -0.093586 -0.39753 0.9128
0.079344 -0.051437 0.0020543 1 -0.0047938 -0.15695 0.98759
0.079957 -0.050409 0.0021863 1 -0.014762 -0.074164 0.99714
0.080359 -0.052023 0.0019659 1 0.0078877 -0.22552 0.97421
0.080978 -0.050995 0.0021458 1 -0.017078 -0.11556 0.99315
0.080547 -0.049389 0.0021609 1 0.015915 0.012722 0.99979
0.081572 -0.049973 0.0021469 1 0.0083749 0.0074412 0.99994
0.081324 -0.052669 0.0017325 1 -0.045497 -0.55072 0.83345
0.081499 -0.052702 0.0017098 1 0.049002 -0.39028 0.91939
0.081996 -0.051581 0.0020843 1 -0.022355 -0.20297 0.97893
0.082577 -0.049719 -0.0023604 1 -0.0081863 -0.046377 -0.99889
0.083612 -0.0503 -0.0023045 1 0.11997 0.037065 0.99209
0.083888 -0.050453 -0.0022714 1 0.012498 -0.10303 -0.9946
0.084657 -0.050878 -0.0021756 1 0.042456 -0.14189 -0.98897
0.085699 -0.051457 -0.0020686 1 -0.0051809 -0.12439 -0.99222
0.086732 -0.052039 -0.0020215 1 -0.04548 -0.15698 -0.98655
0.08319 -0.049535 0.0021231 1 0.0034886 0.0027937 0.99999
0.08422 -0.050119 0.0021379 1 0.0031626 0.019563 0.9998
0.085249 -0.050702 0.0021573 1 -0.0010561 -0.0028289 1
0.086272 -0.051286 0.0021313 1 0.036981 -0.10085 0.99421
0.083038 -0.051321 -0.0021199 1 -0.017717 -0.24765 -0.96869
0.083043 -0.051314 -0.0021219 1 -0.017717 -0.24765 -0.96869
0.082496 -0.052321 -0.001768 1 0.020008 -0.35879 -0.9332
0.08237 -0.053488 -0.0007525 1 -0.067826 -0.98018 -0.18614
0.083297 -0.053468 -0.0008801 1 0.09814 -0.92888 -0.35713
0.083561 -0.052893 -0.0014936 1 -0.079987 -0.56893 -0.81849
0.082984 -0.053706 0.00035994 1 -0.12747 -0.99176 0.012934
0.083283 -0.053726 0.00032001 1 -0.016296 -0.98672 0.1616
0.084548 -0.053868 0.00015264 1 -0.054813 -0.98309 0.17473
0.08409 -0.051892 -0.0019747 1 -0.024422 -0.31015 -0.95037
0.085135 -0.05247 -0.0018376 1 -0.076303 -0.41193 -0.90801
0.084809 -0.053554 -0.0010834 1 -0.1986 -0.78543 -0.58622
0.085773 -0.05408 -6.3069e-06 1 -0.21167 -0.9747 0.071812
0.085743 -0.054023 -0.00055915 1 -0.20987 -0.95468 -0.21102
0.08607 -0.054147 -4.4183e-05 1 -0.28778 -0.89482 0.3413
0.085898 -0.053627 -0.0012295 1 -0.1448 -0.83343 -0.53332
0.086182 -0.053047 -0.0016984 1 -0.088068 -0.38618 -0.91821
0.087131 -0.053827 -0.0013899 1 -0.21187 -0.49489 -0.84273
0.087228 -0.053626 -0.0015596 1 -0.2478 -0.59235 -0.76662
0.082321 -0.053218 0.0012911 1 -0.072382 -0.82564 0.55954
0.08254 -0.052898 0.0015755 1 0.017148 -0.52456 0.8512
0.083006 -0.052169 0.0019558 1 0.02424 -0.33395 0.94228
0.082598 -0.050556 0.0021416 1 -0.0090755 -0.010034 0.99991
0.083626 -0.05114 0.002146 1 -0.023435 -0.055599 0.99818
0.083755 -0.053127 0.0014186 1 0.01761 -0.50837 0.86096
0.08486 -0.053304 0.0012746 1 -0.12397 -0.84606 0.51847
0.08496 -0.053367 0.0012219 1 -0.12397 -0.84606 0.51847
0.083997 -0.052764 0.0016936 1 0.059862 -0.4516 0.89021
0.084645 -0.051726 0.0020827 1 -0.024761 -0.16428 0.9861
0.085647 -0.052317 0.0019025 1 -0.055613 -0.39634 0.91642
0.085894 -0.053977 0.00054319 1 -0.21464 -0.91902 0.33066
0.086198 -0.053563 0.001102 1 -0.12454 -0.78523 0.60655
0.086645 -0.05291 0.0016896 1 -0.080767 -0.47293 0.87739
0.084051 -0.049537 -0.0023313 1 0.011386 -0.03607 -0.99928
0.084204 -0.049278 -0.0023176 1 0.044085 -0.0069158 -0.999
0.085245 -0.049858 -0.0022169 1 0.069707 -0.058817 -0.99583
0.086285 -0.050437 -0.0021197 1 0.036134 -0.050835 -0.99805
0.086878 -0.049417 -0.0021331 1 0.046902 -0.029851 -0.99845
0.085834 -0.049682 0.0020869 1 0.019097 0.045404 0.99879
0.086563 -0.050786 0.0021265 1 0.023673 0.036087 0.99907
0.086583 -0.050107 0.0020961 1 0.016274 0.037972 0.99915
0.086863 -0.050266 0.0020987 1 0.024621 0.033236 0.99914
0.087763 -0.05262 -0.0019889 1 -0.11063 -0.26027 -0.95918
0.088795 -0.053202 -0.00195 1 -0.075821 -0.27308 -0.959
0.089841 -0.053782 -0.0018254 1 -0.03273 -0.39873 -0.91648
0.087342 -0.051901 0.0020653 1 -0.043891 -0.15925 0.98626
0.091349 -0.054231 0.0016122 1 -0.084838 -0.51317 0.85408
0.089333 -0.053044 0.0019713 1 0.0071545 -0.15851 0.98733
0.090343 -0.053632 0.0018475 1 -0.024318 -0.33269 0.94272
0.088042 -0.054082 -0.0015044 1 -0.16282 -0.34953 -0.92267
0.08831 -0.054117 -0.0015396 1 -0.16282 -0.34953 -0.92267
0.089732 -0.053982 -0.0017398 1 -0.03273 -0.39873 -0.91648
0.088266 -0.054205 -0.0014763 1 -0.16282 -0.34953 -0.92267
0.087287 -0.054017 0.00097163 1 -0.28563 -0.79538 0.5346
0.087654 -0.053499 0.0015539 1 -0.1622 -0.52808 0.83356
0.088197 -0.052648 0.0019788 1 -0.081426 -0.18781 0.97883
0.088663 -0.054088 0.0014152 1 -0.12979 -0.60354 0.7867
0.089148 -0.053341 0.001877 1 -0.12558 -0.40133 0.90729
0.090219 -0.053824 0.0017501 1 -0.024318 -0.33269 0.94272
0.091337 -0.054226 0.0016136 1 -0.084838 -0.51317 0.85408
0.087318 -0.051019 -0.0020799 1 -0.0014901 -0.02895 -0.99958
0.087912 -0.049998 -0.0020753 1 0.013574 0.0006767 -0.99991
0.088343 -0.051604 -0.0020966 1 -0.037126 -0.02333 -0.99904
0.088936 -0.050582 -0.0020978 1 0.020709 -0.016377 0.99965
0.089534 -0.049559 -0.0020818 1 -0.0015279 0.035741 -0.99936
0.089368 -0.052188 -0.0021115 1 -0.04427 -0.051264 -0.9977
0.089958 -0.051167 -0.0021429 1 -0.024242 -0.0044602 -0.9997
0.090398 -0.052771 -0.0020917 1 -0.03409 -0.15188 -0.98781
0.090981 -0.051753 -0.0021762 1 -0.02372 -0.0088204 -0.99968
0.090555 -0.050144 -0.0021158 1 0.0052368 -0.050045 0.99873
0.090903 -0.049553 -0.0020805 1 -0.006645 -0.062755 0.99801
0.09167 -0.050572 -0.0021438 1 -0.00055746 -0.073491 0.9973
0.092181 -0.049705 -0.0020819 1 0.0030816 -0.079511 0.99683
0.091423 -0.053342 -0.0019971 1 -0.024585 -0.29528 -0.9551
0.091455 -0.05332 -0.0020023 1 0.011769 -0.22652 -0.97393
0.092007 -0.052336 -0.0021803 1 -0.039367 -0.10813 -0.99336
0.092078 -0.051017 -0.0021814 1 0.045022 -0.040477 0.99817
0.087888 -0.05085 0.0020876 1 0.026093 0.0017039 0.99966
0.088476 -0.049829 0.0020407 1 0.017456 0.026701 0.99949
0.088912 -0.051434 0.0020653 1 0.0021459 -0.024825 0.99969
0.089503 -0.050414 0.0020418 1 0.0031468 0.023369 0.99972
0.090092 -0.049393 0.0020069 1 0.0037405 0.036122 0.99934
0.089941 -0.052017 0.0020724 1 -0.046771 -0.055566 0.99736
0.090534 -0.050996 0.0020684 1 0.021536 -0.019561 -0.99958
0.09097 -0.052601 0.0020958 1 -0.073894 -0.12738 0.9891
0.091569 -0.051578 0.0021214 1 0.027543 0.0076452 -0.99959
0.091126 -0.049975 0.0020455 1 0.021656 -0.047592 -0.99863
0.092161 -0.050556 0.002115 1 0.026914 -0.033663 -0.99907
0.091994 -0.053185 0.0020738 1 -0.085936 -0.22984 0.96943
0.092379 -0.052545 -0.0021603 1 -0.033954 -0.07948 -0.99626
0.092493 -0.053926 -0.001793 1 -0.03756 -0.41618 -0.90851
0.093043 -0.052917 -0.0021121 1 -0.024085 -0.18999 -0.98149
0.092471 -0.051532 -0.0022143 1 -0.022318 -0.017819 -0.99959
0.092599 -0.051315 -0.0022018 1 -0.0090527 0.021412 -0.99973
0.0932 -0.050291 -0.0021523 1 0.011063 -0.07045 0.99745
0.093624 -0.051899 -0.0022122 1 0.00026072 -0.035605 -0.99937
0.094221 -0.050877 -0.0021886 1 0.015767 0.026628 -0.99952
0.094826 -0.049852 -0.0021172 1 0.01571 0.062232 -0.99794
0.092749 -0.049535 0.002066 1 0.021013 -0.074269 -0.99702
0.092599 -0.05216 0.0021452 1 -0.027493 -0.015179 0.99951
0.093011 -0.053771 0.0019982 1 -0.10375 -0.32652 0.93948
0.093625 -0.052744 0.0021392 1 -0.029524 -0.052702 0.99817
0.093195 -0.051138 0.0021586 1 -0.014594 0.003818 0.99989
0.093786 -0.050116 0.0021398 1 -0.00023959 -0.068621 -0.99764
0.094222 -0.051721 0.0021643 1 -0.0019497 -0.0081677 0.99996
0.094816 -0.050699 0.0021575 1 0.026557 0.039469 0.99887
0.094082 -0.053498 -0.0020296 1 -0.051427 -0.24702 -0.96764
0.095121 -0.054077 -0.0019438 1 -0.050992 -0.30493 -0.95101
0.094656 -0.052482 -0.0021786 1 -0.010118 -0.049894 -0.9987
0.095251 -0.051459 -0.0021729 1 0.0075327 0.0241 -0.99968
0.095687 -0.053064 -0.0021466 1 -0.026501 -0.080599 -0.99639
0.096276 -0.052043 -0.002185 1 0.028224 -0.0068196 0.99958
0.096722 -0.053646 -0.0020948 1 -0.018787 -0.19866 -0.97989
0.09585 -0.050436 -0.0021368 1 -0.00068935 -0.043945 0.99903
0.096454 -0.049412 -0.002065 1 0.0099538 -0.07181 0.99737
0.09687 -0.051022 -0.0021846 1 0.020149 -0.03375 0.99923
0.09465 -0.053328 0.0021211 1 -0.0066243 -0.11587 0.99324
0.095664 -0.053916 0.0020205 1 0.0083289 -0.21707 0.97612
0.095248 -0.052305 0.0021502 1 0.025164 0.0026575 0.99968
0.095397 -0.05205 0.002157 1 0.041819 0.006845 0.9991
0.095111 -0.050868 0.002148 1 0.026228 0.036888 0.99898
0.096127 -0.053133 0.0021012 1 0.0094639 -0.088143 0.99606
0.095578 -0.052492 0.0021503 1 0.049813 -0.0031072 0.99875
0.095839 -0.051284 0.0021279 1 0.04784 0.033714 0.99829
0.09627 -0.05289 0.0021128 1 0.038999 -0.01982 0.99904
0.096863 -0.051869 0.0021019 1 0.030732 0.015719 0.9994
0.097075 -0.053834 0.0020001 1 -0.041468 -0.17671 0.98339
0.095471 -0.049725 0.0020521 1 0.032768 0.085051 0.99584
0.096423 -0.050266 0.0020508 1 0.038334 0.05816 0.99757
0.097299 -0.052629 -0.0022204 1 -0.036241 -0.031296 -0.99885
0.097766 -0.054224 -0.0019708 1 -0.014638 -0.32116 -0.94691
0.098329 -0.053211 -0.0021941 1 0.016817 -0.17052 -0.98521
0.097473 -0.049998 -0.0021274 1 0.020064 -0.060905 0.99794
0.097892 -0.051607 -0.0022304 1 -0.0045283 0.00911 -0.99995
0.098492 -0.050583 -0.0021807 1 0.012413 -0.036428 0.99926
0.098918 -0.05219 -0.0022313 1 0.0060243 0.0024737 -0.99998
0.099517 -0.051169 -0.0022068 1 -0.010685 0.0047479 -0.99993
0.09909 -0.04956 -0.0021595 1 0.051901 -0.028395 0.99825
0.10011 -0.050147 -0.0022109 1 0.041069 -0.0039889 0.99915
0.099374 -0.053789 -0.0020672 1 0.018509 -0.23906 -0.97083
0.099993 -0.054127 -0.00195 1 0.0080457 -0.29565 -0.95526
0.09995 -0.052773 -0.0021963 1 -0.0028381 -0.083517 -0.9965
0.10054 -0.051753 -0.0022318 1 0.047709 0.0039172 0.99885
0.10075 -0.053764 -0.0020691 1 -0.071052 -0.22841 -0.97097
0.10098 -0.053355 -0.0021633 1 -0.036475 -0.11914 -0.99221
0.10156 -0.052338 -0.0022866 1 0.08093 0.04909 0.99551
0.10119 -0.050625 -0.0022569 1 0.051895 -0.0053808 0.99864
0.10195 -0.051659 -0.0023186 1 0.044284 -0.0066071 0.999
0.10135 -0.053565 -0.0021588 1 -0.094358 -0.14282 -0.98524
0.09729 -0.053476 0.0020535 1 0.020459 -0.057746 0.99812
0.097888 -0.052452 0.0020863 1 0.0026584 -0.02309 0.99973
0.09831 -0.054061 0.0020121 1 -0.02752 -0.13346 0.99067
0.098912 -0.053037 0.0020692 1 0.010432 -0.011429 0.99988
0.09745 -0.050849 0.0020489 1 0.02296 0.033753 0.99917
0.098038 -0.049829 0.0019994 1 0.002033 0.037089 0.99931
0.098477 -0.051433 0.0020496 1 0.019939 0.023391 0.99953
0.099066 -0.050413 0.0020095 1 0.010254 0.022625 0.99969
0.099504 -0.052016 0.0020408 1 0.021807 0.020392 0.99955
0.10009 -0.050996 0.0020063 1 0.010852 0.015139 0.99983
0.099658 -0.049392 0.0019897 1 -0.0037769 0.010987 0.99993
0.10069 -0.049975 0.001999 1 -0.0080112 0.00022723 0.99997
0.099935 -0.053622 0.0020334 1 0.026091 -0.036837 0.99898
0.10095 -0.05421 0.0019441 1 0.046677 -0.18363 0.98189
0.10172 -0.049712 -0.0022861 1 0.038934 -0.0044463 0.99923
0.10215 -0.051318 -0.0023135 1 0.041846 -0.011069 0.99906
0.10201 -0.053937 -0.0021266 1 -0.04029 -0.18441 -0.98202
0.10053 -0.052601 0.0020242 1 0.023836 0.0061435 0.9997
0.10112 -0.05158 0.0020028 1 0.0050922 0.0052883 0.99997
0.10155 -0.053186 0.0019889 1 0.021492 -0.028263 0.99937
0.10215 -0.052163 0.0019993 1 -0.0036834 -0.011159 0.99993
0.10171 -0.050558 0.0020101 1 -0.016343 -0.0056736 0.99985
0.10237 -0.052804 -0.002329 1 -0.052184 -0.073586 -0.99592
0.10274 -0.050296 -0.0023187 1 -0.018199 0.0086216 -0.9998
0.10258 -0.052924 -0.002331 1 -0.052421 -0.081401 -0.9953
0.10361 -0.053507 -0.0023079 1 -0.039542 -0.13979 -0.98939
0.10317 -0.051903 -0.002354 1 0.02012 -0.0093908 0.99975
0.10377 -0.05088 -0.0023335 1 -0.0038917 0.011424 -0.99993
0.1042 -0.052486 -0.0023653 1 -0.019485 -0.0024121 -0.99981
0.10479 -0.051465 -0.0023467 1 -0.01215 0.015961 -0.9998
0.10231 -0.049535 0.0020377 1 0.028565 0.0092431 -0.99955
0.10274 -0.051141 0.002022 1 -0.020372 -0.016862 0.99965
0.10334 -0.050117 0.0020568 1 -0.023518 -0.017686 0.99957
