ply
format ascii 1.0
comment author Paulo Abelha (p.abelha at abdn ac uk)
element vertex 890
property float x
property float y
property float z
property int segm
property float nx
property float ny
property float nz
end_header
-0.07293 0.092063 0.17883 1 0.5692 -0.30009 0.76548
-0.0716 0.093068 0.17882 1 -0.05149 -0.26971 0.96157
-0.065102 0.089171 0.17772 1 0.065655 -0.39134 0.9179
-0.068134 0.091846 0.17879 1 -0.023619 -0.33332 0.94252
-0.067462 0.091151 0.17856 1 0.0019599 -0.32854 0.94449
-0.057505 0.093874 0.1778 1 0.30792 -0.29951 0.90304
-0.044191 0.093696 0.17738 1 0.54281 -0.17152 0.82215
-0.045009 0.09086 0.17732 1 0.51911 -0.18285 0.83492
-0.044301 0.091188 0.17694 1 0.54201 -0.17441 0.82207
-0.045652 0.090506 0.17763 1 0.50845 -0.19203 0.8394
-0.045998 0.092066 0.1782 1 0.49773 -0.18762 0.8468
-0.045481 0.091475 0.17775 1 0.51535 -0.18586 0.83658
-0.044538 0.090359 0.17692 1 0.53017 -0.18507 0.82745
-0.048205 0.085361 0.17785 1 0.45787 -0.22267 0.86068
-0.050427 0.085054 0.17884 1 0.41275 -0.21984 0.88392
-0.046816 0.086445 0.17734 1 0.4762 -0.2112 0.8536
-0.045911 0.087615 0.17711 1 0.49483 -0.2021 0.84516
-0.044801 0.088945 0.17675 1 0.51964 -0.19641 0.8315
-0.045143 0.087567 0.17664 1 0.51121 -0.19774 0.8364
-0.046817 0.085356 0.17707 1 0.47706 -0.20815 0.85387
-0.045976 0.085065 0.17653 1 0.48779 -0.21401 0.84632
-0.05399 0.093202 0.17607 1 0.43881 -0.30811 0.84411
-0.054561 0.093667 0.17652 1 0.41746 -0.29366 0.85994
-0.055628 0.092082 0.17643 1 0.38357 -0.34053 0.85843
-0.054968 0.091736 0.17599 1 0.40537 -0.36314 0.83893
-0.043522 0.093346 0.17686 1 0.55069 -0.17331 0.81652
-0.045522 0.089038 0.17721 1 0.50796 -0.19457 0.83912
-0.044071 0.088707 0.17622 1 0.54745 -0.19579 0.81362
-0.043584 0.089566 0.17609 1 0.56591 -0.18214 0.8041
-0.052425 0.093425 0.17527 1 0.49048 -0.3053 0.81623
-0.042482 0.09219 0.17588 1 0.57416 -0.19083 0.79619
-0.041381 0.091492 0.17494 1 0.556 -0.21379 0.80322
-0.042823 0.089589 0.17555 1 0.58629 -0.17394 0.79121
-0.042853 0.091268 0.17594 1 0.58178 -0.17641 0.79399
-0.041873 0.090774 0.17509 1 0.57482 -0.19001 0.79591
-0.045403 0.0883 0.17697 1 0.50544 -0.19492 0.84056
-0.045399 0.08454 0.17605 1 0.51271 -0.21412 0.83144
-0.040964 0.093355 0.17508 1 0.60139 -0.14346 0.78597
-0.051627 0.092421 0.17441 1 0.50335 -0.31841 0.80328
-0.040771 0.090905 0.17437 1 0.6094 -0.21959 0.76184
-0.041711 0.088446 0.17444 1 0.59978 -0.19654 0.77565
-0.05586 0.088037 0.1747 1 0.43076 -0.42346 0.79695
-0.051101 0.091254 0.17356 1 0.53908 -0.34914 0.76648
-0.053426 0.091489 0.17508 1 0.44469 -0.36565 0.81765
-0.040773 0.089067 0.17383 1 0.64136 -0.20892 0.73825
-0.052974 0.090278 0.17424 1 0.45487 -0.39976 0.7958
-0.054405 0.089603 0.1747 1 0.43771 -0.40517 0.80265
-0.054528 0.087657 0.17375 1 0.42689 -0.4309 0.79504
-0.053866 0.088181 0.17367 1 0.42956 -0.41879 0.80006
-0.039336 0.093554 0.1737 1 0.74733 -0.17131 0.64199
-0.040344 0.088393 0.17323 1 0.76457 -0.18755 0.61665
-0.042027 0.086874 0.17424 1 0.59983 -0.21597 0.77043
-0.040793 0.087527 0.17344 1 0.69425 -0.21898 0.68561
-0.05318 0.087849 0.17313 1 0.44512 -0.42856 0.78626
-0.054565 0.086731 0.17326 1 0.43371 -0.45075 0.78021
-0.040703 0.086612 0.17302 1 0.75186 -0.25075 0.60978
-0.055419 0.085261 0.17284 1 0.40997 -0.49102 0.76865
-0.052513 0.087595 0.17258 1 0.48226 -0.43646 0.75955
-0.046723 0.091908 0.17038 1 0.65541 -0.34757 0.67055
-0.040586 0.085025 0.17085 1 -0.92915 0.26868 0.25394
-0.051063 0.085502 0.17022 1 0.5235 -0.47903 0.70461
-0.046545 0.092704 0.17064 1 0.64672 -0.31114 0.69637
-0.045202 0.091339 0.16876 1 0.6055 -0.28338 0.74368
-0.046581 0.090638 0.16963 1 0.6508 -0.38812 0.65255
-0.046301 0.090178 0.16903 1 0.58224 -0.35408 0.73186
-0.040536 0.086763 0.16976 1 -0.90236 0.25071 0.35055
-0.048932 0.086217 0.16899 1 0.54941 -0.46696 0.69288
-0.043688 0.093263 0.1682 1 0.65891 -0.2645 0.70419
-0.039596 0.092096 0.1686 1 -0.92489 0.087605 0.37001
-0.048218 0.086151 0.16842 1 0.51236 -0.43183 0.7423
-0.042065 0.091947 0.16694 1 0.26749 -0.17977 0.94664
-0.043842 0.090605 0.16735 1 0.51033 -0.25607 0.82097
-0.044467 0.088172 0.16696 1 0.42136 -0.27218 0.86509
-0.046495 0.086543 0.16755 1 0.49655 -0.35079 0.79396
-0.058141 0.093144 0.17776 1 0.28324 -0.31324 0.90645
-0.058966 0.093324 0.17807 1 0.27002 -0.31005 0.91157
-0.061021 0.090697 0.17769 1 0.20809 -0.36831 0.90612
-0.062013 0.088913 0.17715 1 0.18368 -0.38471 0.90458
-0.062901 0.09007 0.17781 1 0.16292 -0.38152 0.90989
-0.070026 0.091087 0.17844 1 -0.10289 -0.35504 0.92917
-0.071637 0.090586 0.17807 1 0.080018 -0.32863 0.94106
-0.064312 0.088905 0.17753 1 0.11245 -0.39961 0.90976
-0.06514 0.090081 0.1781 1 0.051752 -0.36936 0.92785
-0.067434 0.089598 0.17797 1 -0.003419 -0.38506 0.92289
-0.063461 0.08931 0.17758 1 0.14482 -0.38859 0.90996
-0.056185 0.092434 0.17681 1 0.36433 -0.32848 0.87142
-0.058443 0.088928 0.17623 1 0.28686 -0.38948 0.87522
-0.060013 0.090705 0.17744 1 0.24081 -0.36389 0.89977
-0.060259 0.089019 0.17681 1 0.23372 -0.38994 0.89069
-0.065143 0.086429 0.17643 1 0.084436 -0.44512 0.89148
-0.064236 0.087568 0.17689 1 0.10704 -0.44109 0.89106
-0.06698 0.086126 0.17636 1 0.017731 -0.43882 0.8984
-0.065906 0.087818 0.17716 1 0.043434 -0.43439 0.89968
-0.067474 0.088831 0.17764 1 -0.013906 -0.40095 0.91599
-0.066898 0.087514 0.17705 1 0.0085097 -0.44384 0.89607
-0.06875 0.087587 0.17705 1 -0.020175 -0.41236 0.9108
-0.05499 0.090855 0.1756 1 0.41204 -0.37788 0.82911
-0.055157 0.088025 0.17428 1 0.44196 -0.42085 0.79219
-0.056704 0.089976 0.17603 1 0.3673 -0.37734 0.85012
-0.05868 0.089791 0.17667 1 0.28124 -0.36917 0.88579
-0.062275 0.087172 0.1764 1 0.17397 -0.44112 0.88043
-0.061397 0.087439 0.17634 1 0.20505 -0.4355 0.87652
-0.063779 0.08606 0.17608 1 0.11857 -0.45077 0.88473
-0.055928 0.089494 0.17543 1 0.40403 -0.38368 0.83039
-0.060503 0.087568 0.17618 1 0.23057 -0.44521 0.86523
-0.061567 0.086623 0.17597 1 0.21003 -0.44345 0.87135
-0.063025 0.086646 0.17627 1 0.13979 -0.446 0.88405
-0.056003 0.086462 0.17388 1 0.38929 -0.46872 0.79294
-0.058578 0.085811 0.17457 1 0.30528 -0.49827 0.8115
-0.059089 0.08519 0.17438 1 0.3073 -0.49533 0.81254
-0.060937 0.086007 0.17548 1 0.23867 -0.45726 0.85671
-0.059576 0.085689 0.17487 1 0.29506 -0.4883 0.82128
-0.057745 0.086305 0.17456 1 0.31617 -0.49584 0.80881
-0.057986 0.087169 0.17517 1 0.31067 -0.46818 0.82722
-0.056879 0.08612 0.17409 1 0.35384 -0.48608 0.79908
-0.064891 0.085077 0.17571 1 0.10714 -0.47909 0.8712
-0.063116 0.085607 0.17575 1 0.13794 -0.47422 0.86953
-0.062353 0.085289 0.17544 1 0.17362 -0.48688 0.85604
-0.06142 0.08522 0.17519 1 0.21835 -0.48134 0.8489
-0.06067 0.086838 0.17584 1 0.23766 -0.4523 0.85962
-0.05748 0.087819 0.17533 1 0.33509 -0.44712 0.82933
-0.058275 0.088012 0.17574 1 0.29553 -0.43073 0.85272
-0.056664 0.087792 0.17497 1 0.37706 -0.44449 0.81256
-0.056962 0.088454 0.17545 1 0.36556 -0.40848 0.83637
-0.068028 0.085842 0.17624 1 0.0083769 -0.44243 0.89677
-0.065761 0.085097 0.17581 1 0.05992 -0.46863 0.88136
-0.066379 0.085595 0.17609 1 0.029206 -0.44856 0.89327
-0.069812 0.085602 0.17613 1 0.055729 -0.39753 0.91589
-0.064534 0.085797 0.17604 1 0.1099 -0.45746 0.88241
-0.06201 0.088074 0.17679 1 0.18342 -0.41419 0.89152
-0.059119 0.088088 0.17604 1 0.26257 -0.42798 0.86481
-0.059339 0.088987 0.17653 1 0.26176 -0.39593 0.88018
-0.055763 0.090332 0.17574 1 0.4045 -0.38093 0.83143
-0.056882 0.089238 0.17576 1 0.38178 -0.38381 0.8408
-0.071453 0.08548 0.17643 1 0.44426 -0.20649 0.87178
-0.068377 0.086699 0.17665 1 -0.0055888 -0.4225 0.90634
-0.069268 0.086936 0.17674 1 -0.021793 -0.41433 0.90986
-0.070733 0.08782 0.17708 1 0.040701 -0.36777 0.92902
-0.07002 0.088526 0.1774 1 -0.071156 -0.38489 0.92021
-0.069678 0.087783 0.17711 1 -0.035838 -0.3999 0.91586
-0.067448 0.086702 0.17665 1 0.0013262 -0.43544 0.90022
-0.067414 0.088077 0.17731 1 -0.025066 -0.41724 0.90845
-0.066372 0.086976 0.17676 1 0.023845 -0.44201 0.89669
-0.06528 0.087235 0.17684 1 0.081183 -0.44013 0.89426
-0.065815 0.088719 0.17757 1 0.046056 -0.39945 0.9156
-0.06447 0.086723 0.1765 1 0.10304 -0.44292 0.89062
-0.059648 0.089847 0.17699 1 0.25486 -0.37325 0.89204
-0.057696 0.089711 0.17631 1 0.31543 -0.36671 0.87523
-0.057221 0.090648 0.17652 1 0.33084 -0.35871 0.87285
-0.05753 0.091458 0.17696 1 0.31287 -0.3391 0.8872
-0.05656 0.091542 0.17662 1 0.35599 -0.34462 0.86862
-0.072317 0.088209 0.17763 1 0.54514 -0.15417 0.82405
-0.063797 0.088318 0.1772 1 0.12565 -0.41338 0.90185
-0.070264 0.089359 0.17772 1 -0.099979 -0.36888 0.92409
-0.069288 0.089184 0.17773 1 -0.061734 -0.38159 0.92227
-0.066648 0.089287 0.17784 1 0.013616 -0.38373 0.92335
-0.065957 0.089702 0.17799 1 0.040282 -0.37274 0.92706
-0.071957 0.089752 0.17784 1 0.24256 -0.26345 0.93368
-0.071076 0.089793 0.17778 1 -0.033944 -0.31197 0.94949
-0.070267 0.090237 0.17808 1 -0.1147 -0.36982 0.922
-0.062809 0.090939 0.17815 1 0.17845 -0.36279 0.91462
-0.062494 0.08948 0.17749 1 0.17269 -0.38115 0.90824
-0.061496 0.089786 0.17741 1 0.19167 -0.38126 0.90438
-0.060594 0.089868 0.17725 1 0.2188 -0.37295 0.90169
-0.061108 0.091566 0.17805 1 0.19239 -0.3313 0.9237
-0.059403 0.091591 0.1776 1 0.27173 -0.3309 0.9037
-0.058474 0.091484 0.17728 1 0.28321 -0.3253 0.90221
-0.057883 0.09228 0.17737 1 0.29207 -0.31915 0.90158
-0.043371 0.086504 0.16621 1 -0.0094349 -0.11171 0.9937
-0.042391 0.086148 0.1664 1 -0.54775 0.12784 0.82682
-0.043805 0.087539 0.16649 1 0.28871 -0.24028 0.92678
-0.042124 0.087903 0.16641 1 -0.34291 0.032739 0.9388
-0.043002 0.088214 0.16642 1 0.13013 -0.16588 0.97752
-0.041998 0.08968 0.16652 1 -0.034914 -0.068783 0.99702
-0.042748 0.090179 0.16674 1 0.28988 -0.2053 0.93478
-0.041548 0.085464 0.16808 1 -0.89099 0.29169 0.34793
-0.041427 0.086256 0.16776 1 -0.89175 0.24042 0.38339
-0.046074 0.087399 0.16764 1 0.51443 -0.33996 0.78727
-0.044744 0.087246 0.16678 1 0.39796 -0.28445 0.87219
-0.04437 0.089145 0.16724 1 0.47409 -0.25998 0.84122
-0.041716 0.086561 0.16703 1 -0.83163 0.19869 0.51857
-0.041069 0.088023 0.16762 1 -0.86948 0.25002 0.42601
-0.040803 0.088947 0.16752 1 -0.84161 0.26061 0.47304
-0.041088 0.090232 0.16673 1 -0.56905 -0.0055689 0.82228
-0.043563 0.089745 0.16697 1 0.4166 -0.21703 0.8828
-0.04238 0.091141 0.16686 1 0.32257 -0.22112 0.92035
-0.039988 0.091387 0.16793 1 -0.85062 0.1556 0.50223
-0.042572 0.092775 0.16727 1 0.37757 -0.17499 0.9093
-0.041073 0.093444 0.16699 1 -0.17828 -0.060813 0.9821
-0.040177 0.093251 0.16736 1 -0.6509 0.062024 0.75663
-0.042972 0.09367 0.16768 1 0.56841 -0.20366 0.79714
-0.046853 0.087185 0.16806 1 0.50982 -0.37235 0.77553
-0.045717 0.088247 0.16777 1 0.53639 -0.3444 0.7705
-0.045026 0.089676 0.1679 1 0.58411 -0.33455 0.73952
-0.043775 0.09154 0.16762 1 0.54433 -0.28628 0.78851
-0.040111 0.090375 0.16805 1 -0.86218 0.18085 0.47322
-0.044062 0.09229 0.16815 1 0.63529 -0.28477 0.71785
-0.0397 0.093023 0.16813 1 -0.89316 0.060051 0.44571
-0.04109 0.086847 0.1683 1 -0.90964 0.22915 0.34648
-0.040822 0.086861 0.16899 1 -0.90044 0.25605 0.35164
-0.047146 0.087777 0.16855 1 0.52803 -0.37368 0.7626
-0.047444 0.088322 0.16902 1 0.55415 -0.40432 0.72763
-0.04665 0.088625 0.16863 1 0.52675 -0.39557 0.75237
-0.04037 0.088447 0.16881 1 -0.88321 0.30113 0.35952
-0.040305 0.089372 0.16828 1 -0.86818 0.27893 0.41044
-0.039508 0.090672 0.16939 1 -0.93485 0.16872 0.31239
-0.045124 0.090581 0.16839 1 0.60547 -0.31919 0.72905
-0.044414 0.092886 0.16872 1 0.62842 -0.28734 0.72286
-0.0394 0.093 0.16892 1 -0.93663 0.075371 0.34213
-0.044818 0.093382 0.16922 1 0.63296 -0.29823 0.71444
-0.039249 0.093793 0.16919 1 -0.92948 0.090442 0.3576
-0.041273 0.085345 0.16901 1 -0.89507 0.31367 0.31695
-0.059749 0.087232 0.17579 1 0.25295 -0.45485 0.85389
-0.049567 0.086253 0.16955 1 0.55982 -0.48471 0.67205
-0.048375 0.086896 0.16902 1 0.56983 -0.41766 0.70771
-0.040889 0.086002 0.16943 1 -0.89587 0.26794 0.35444
-0.048042 0.088449 0.16962 1 0.61437 -0.42829 0.66266
-0.040118 0.088313 0.16964 1 -0.87367 0.33944 0.34854
-0.046941 0.089785 0.16943 1 0.60066 -0.35284 0.71743
-0.039618 0.089749 0.1696 1 -0.91029 0.23272 0.34238
-0.045819 0.090863 0.16908 1 0.59352 -0.3234 0.73698
-0.039183 0.091112 0.17016 1 -0.9483 0.16071 0.27369
-0.045643 0.091846 0.16928 1 0.62445 -0.34342 0.70152
-0.039238 0.092462 0.16951 1 -0.93768 0.091442 0.33524
-0.050271 0.085898 0.16989 1 0.54375 -0.47322 0.69311
-0.049875 0.08671 0.1701 1 0.55482 -0.43849 0.70704
-0.049361 0.087494 0.17015 1 0.5832 -0.43448 0.68637
-0.047972 0.089783 0.1703 1 0.61244 -0.37378 0.69657
-0.062383 0.08621 0.17594 1 0.1719 -0.45247 0.87506
-0.051565 0.085979 0.17088 1 0.51006 -0.47605 0.71639
-0.040245 0.086702 0.17054 1 -0.9273 0.21059 0.30945
-0.040053 0.086598 0.17142 1 -0.96801 0.25066 0.010918
-0.048818 0.088243 0.17019 1 0.5806 -0.46041 0.67151
-0.039501 0.088867 0.17095 1 -0.94734 0.31693 0.045787
-0.047852 0.090514 0.17067 1 0.61695 -0.39251 0.68214
-0.048132 0.091034 0.17119 1 0.59287 -0.35872 0.72099
-0.047003 0.091013 0.17028 1 0.63031 -0.35732 0.68923
-0.047236 0.092248 0.17112 1 0.63494 -0.35454 0.6864
-0.039047 0.091951 0.17022 1 -0.94798 0.12344 0.29343
-0.038879 0.092956 0.17035 1 -0.93872 0.1081 0.3273
-0.047143 0.092979 0.17129 1 0.62913 -0.27627 0.72655
-0.045985 0.093381 0.17035 1 0.6736 -0.29449 0.67789
-0.040559 0.084827 0.17188 1 -0.92404 0.30158 -0.23495
-0.051669 0.086776 0.1715 1 0.50058 -0.48346 0.71811
-0.052335 0.086086 0.17149 1 0.49259 -0.48244 0.7243
-0.040239 0.086535 0.17227 1 0.89666 -0.25212 0.3639
-0.050936 0.086922 0.17107 1 0.54031 -0.46579 0.70079
-0.051775 0.08751 0.17206 1 0.49661 -0.44389 0.74588
-0.050335 0.087858 0.17121 1 0.55984 -0.41232 0.71873
-0.050039 0.089543 0.1719 1 0.54933 -0.4062 0.73023
-0.049305 0.089535 0.17134 1 0.57036 -0.3854 0.72537
-0.039214 0.08963 0.17135 1 -0.96682 0.24931 -0.055667
-0.038792 0.091943 0.17162 1 -0.97941 0.19725 -0.043099
-0.047321 0.093659 0.17171 1 0.62113 -0.29757 0.72501
-0.053874 0.085689 0.17221 1 0.45502 -0.48034 0.74982
-0.053869 0.086469 0.17271 1 0.44354 -0.46827 0.7642
-0.051931 0.0882 0.17251 1 0.51217 -0.42314 0.74742
-0.039894 0.088203 0.17239 1 -0.92369 0.23395 -0.30343
-0.051668 0.088951 0.1728 1 0.51405 -0.40789 0.75457
-0.039852 0.089062 0.17273 1 0.85401 -0.22504 0.46906
-0.050831 0.089174 0.17228 1 0.53465 -0.40393 0.74229
-0.049905 0.090552 0.17232 1 0.56258 -0.38167 0.73336
-0.049393 0.090274 0.1718 1 0.56368 -0.36926 0.73886
-0.04853 0.091459 0.17172 1 0.56592 -0.37696 0.73323
-0.038934 0.091865 0.17236 1 -0.94272 0.20704 -0.26156
-0.048501 0.092113 0.17201 1 0.56704 -0.35087 0.74522
-0.049165 0.092105 0.17249 1 0.56523 -0.34658 0.7486
-0.047815 0.092811 0.17178 1 0.60883 -0.31451 0.72829
-0.041617 0.08534 0.17345 1 0.65088 -0.25325 0.7157
-0.04118 0.085863 0.17326 1 0.67488 -0.26778 0.68763
-0.041984 0.086051 0.17398 1 0.6227 -0.22546 0.74927
-0.053865 0.087308 0.1732 1 0.43318 -0.44814 0.782
-0.03976 0.089982 0.17301 1 0.80891 -0.26429 0.52518
-0.051186 0.08965 0.17278 1 0.53941 -0.39178 0.74535
-0.051748 0.089781 0.17325 1 0.50129 -0.38611 0.77436
-0.039293 0.090554 0.17252 1 -0.90978 0.25885 -0.32451
-0.040219 0.090395 0.17373 1 0.68708 -0.25668 0.67974
-0.059052 0.090664 0.17715 1 0.27434 -0.35613 0.89326
-0.050452 0.090918 0.17295 1 0.55471 -0.35564 0.75221
-0.039086 0.092295 0.17301 1 0.86779 -0.21413 0.44843
-0.049759 0.092336 0.17304 1 0.55619 -0.35149 0.75307
-0.048698 0.093683 0.17283 1 0.58414 -0.30972 0.75023
-0.06429 0.089745 0.1779 1 0.10391 -0.38648 0.91643
-0.0425 0.084357 0.17392 1 0.61414 -0.23319 0.75396
-0.042866 0.084898 0.17438 1 0.61382 -0.23247 0.75444
-0.041435 0.087581 0.17401 1 0.60506 -0.20802 0.76852
-0.053832 0.089031 0.17409 1 0.43956 -0.40778 0.80031
-0.053641 0.089766 0.17436 1 0.44747 -0.40422 0.79773
-0.040809 0.089928 0.17411 1 0.6214 -0.20514 0.75616
-0.041435 0.089326 0.17443 1 0.601 -0.18856 0.77668
-0.05363 0.090518 0.17473 1 0.44603 -0.39275 0.80424
-0.052353 0.089979 0.17373 1 0.4693 -0.40025 0.78712
-0.051699 0.090658 0.17368 1 0.49679 -0.38117 0.77969
-0.051836 0.091501 0.17415 1 0.50077 -0.35246 0.79057
-0.050429 0.091796 0.17329 1 0.55821 -0.32436 0.76367
-0.039553 0.091783 0.17354 1 0.74818 -0.2193 0.62621
-0.040033 0.092264 0.1741 1 0.65299 -0.1636 0.73949
-0.050273 0.092677 0.17361 1 0.55751 -0.33299 0.76046
-0.051038 0.092094 0.17389 1 0.53727 -0.33448 0.77425
-0.0427 0.086437 0.17468 1 0.62054 -0.18917 0.76102
-0.042658 0.087283 0.17486 1 0.60418 -0.19201 0.77337
-0.042424 0.088183 0.17491 1 0.59376 -0.20409 0.77833
-0.043153 0.087859 0.17538 1 0.58193 -0.18901 0.79097
-0.042042 0.089883 0.17502 1 0.5885 -0.17541 0.78924
-0.042169 0.089087 0.17494 1 0.59764 -0.18251 0.78072
-0.052791 0.091129 0.17456 1 0.45689 -0.3822 0.80323
-0.05427 0.090623 0.17513 1 0.4285 -0.38593 0.81697
-0.040687 0.091848 0.17454 1 0.59755 -0.1856 0.78006
-0.052489 0.091894 0.17473 1 0.481 -0.3305 0.81204
-0.040509 0.092794 0.17461 1 0.62639 -0.15559 0.76383
-0.062848 0.088551 0.17716 1 0.15632 -0.39931 0.90339
-0.043966 0.084243 0.175 1 0.56631 -0.24807 0.78597
-0.044723 0.086122 0.17604 1 0.51418 -0.2049 0.83285
-0.045037 0.085283 0.17601 1 0.5182 -0.21571 0.82761
-0.044175 0.085353 0.17549 1 0.53358 -0.22191 0.81612
-0.043494 0.085049 0.17493 1 0.57298 -0.2481 0.78111
-0.042768 0.085659 0.17454 1 0.61998 -0.22011 0.75311
-0.044534 0.087099 0.17615 1 0.52467 -0.18987 0.82986
-0.045326 0.086813 0.17657 1 0.50689 -0.19697 0.83921
-0.043335 0.086948 0.17532 1 0.59566 -0.18401 0.78188
-0.04387 0.087669 0.17584 1 0.55046 -0.1838 0.81438
-0.042132 0.091471 0.17545 1 0.57311 -0.19248 0.79655
-0.04229 0.093135 0.17597 1 0.56925 -0.18653 0.80073
-0.053239 0.093367 0.17573 1 0.4655 -0.30686 0.83015
-0.05219 0.092745 0.17486 1 0.48571 -0.30834 0.81793
-0.051536 0.093391 0.17472 1 0.50533 -0.29922 0.80939
-0.040395 0.093816 0.1747 1 0.63505 -0.13906 0.75985
-0.0612 0.088951 0.177 1 0.19796 -0.38562 0.90117
-0.046006 0.084062 0.17629 1 0.4963 -0.21825 0.84027
-0.043414 0.088677 0.17576 1 0.56394 -0.18892 0.80392
-0.044326 0.089603 0.17661 1 0.53685 -0.19141 0.82168
-0.043596 0.091334 0.17649 1 0.56529 -0.17548 0.80601
-0.054824 0.092704 0.17631 1 0.40744 -0.31759 0.85623
-0.04671 0.084458 0.17679 1 0.47961 -0.21181 0.85154
-0.046115 0.086782 0.17703 1 0.4882 -0.20654 0.84794
-0.048404 0.084487 0.17772 1 0.44423 -0.22431 0.86738
-0.047524 0.084795 0.17733 1 0.47214 -0.21479 0.85496
-0.046244 0.085888 0.17688 1 0.47893 -0.21009 0.85234
-0.046709 0.087555 0.17755 1 0.47873 -0.206 0.85345
-0.045121 0.089841 0.17715 1 0.51097 -0.19537 0.8371
-0.046156 0.091199 0.17809 1 0.4938 -0.19487 0.84746
-0.044825 0.091861 0.17742 1 0.52976 -0.1771 0.82945
-0.056734 0.093748 0.17748 1 0.33415 -0.29409 0.89546
-0.072879 0.087254 0.1786 1 -0.98471 -0.12037 -0.12596
-0.07273 0.089598 0.17817 1 0.60406 -0.097782 0.79091
-0.068325 0.08921 0.17779 1 -0.031645 -0.39512 0.91808
-0.068728 0.08997 0.17808 1 -0.054217 -0.37104 0.92703
-0.04522 0.086355 0.16672 1 0.39791 -0.30045 0.86683
-0.066835 0.090309 0.17825 1 0.017494 -0.35339 0.93531
-0.069317 0.090601 0.17829 1 -0.049386 -0.35719 0.93273
-0.068381 0.090896 0.17845 1 -0.037464 -0.33512 0.94143
-0.065144 0.090875 0.17841 1 0.032408 -0.349 0.93656
-0.072282 0.09136 0.17838 1 0.225 -0.2564 0.94002
-0.065646 0.091503 0.17865 1 0.018978 -0.33776 0.94104
-0.064602 0.091523 0.17862 1 0.067774 -0.33118 0.94113
-0.071271 0.092278 0.17863 1 -0.11939 -0.28502 0.95106
-0.070603 0.091814 0.17862 1 -0.15005 -0.31335 0.93771
-0.061476 0.093014 0.17859 1 0.19896 -0.30035 0.93285
-0.060491 0.093211 0.17844 1 0.21369 -0.28951 0.93302
-0.059746 0.092572 0.17805 1 0.25415 -0.30979 0.91621
-0.043355 0.09259 0.16764 1 0.54142 -0.27341 0.79505
-0.072176 0.085197 0.17979 1 -0.9319 -0.26843 0.24396
-0.07245 0.085971 0.17942 1 -0.94124 -0.25413 0.22243
-0.072522 0.08668 0.18008 1 -0.93746 -0.271 0.21845
-0.072841 0.087411 0.1796 1 -0.95365 -0.22911 0.19507
-0.073145 0.088973 0.1787 1 -0.93831 -0.059188 -0.34071
-0.069997 0.092607 0.17897 1 -0.10969 -0.30792 0.94507
-0.069106 0.092233 0.17891 1 -0.040915 -0.33161 0.94253
-0.069346 0.093216 0.17922 1 -0.062034 -0.29547 0.95334
-0.067118 0.093091 0.17923 1 0.0028544 -0.31272 0.94984
-0.066122 0.092237 0.17892 1 0.015505 -0.33004 0.94384
-0.065529 0.093127 0.17921 1 0.04242 -0.30503 0.9514
-0.063619 0.091419 0.17849 1 0.13927 -0.34412 0.92854
-0.06415 0.092264 0.17884 1 0.085542 -0.31481 0.94529
-0.062662 0.09179 0.17844 1 0.1935 -0.33122 0.9235
-0.067661 0.093748 0.17943 1 -0.0081471 -0.2775 0.96069
-0.062195 0.093695 0.17897 1 0.19799 -0.2883 0.93685
-0.072906 0.088196 0.18003 1 -0.96145 -0.18443 0.20396
-0.073273 0.089657 0.17938 1 -0.98331 -0.17966 -0.028568
-0.073445 0.091315 0.17927 1 -0.91865 0.088947 -0.38493
-0.073648 0.092824 0.18021 1 -0.99826 -0.058673 -0.0066425
-0.070981 0.093773 0.17914 1 -0.17202 -0.27938 0.94465
-0.072633 0.087462 0.1805 1 -0.94465 -0.23206 0.23192
-0.072316 0.086765 0.18102 1 -0.92903 -0.27184 0.25102
-0.072735 0.08828 0.18086 1 -0.9492 -0.21478 0.22997
-0.073174 0.089693 0.18027 1 -0.96629 -0.20853 0.151
-0.073473 0.091241 0.18013 1 -0.98763 -0.1442 0.061615
-0.0735 0.092387 0.18106 1 -0.97552 -0.1436 0.16658
-0.056691 0.084667 0.18132 1 0.32763 -0.23555 0.91497
-0.072998 0.08974 0.18118 1 -0.95106 -0.22509 0.21172
-0.060048 0.084356 0.18232 1 0.26843 -0.23614 0.93391
-0.062258 0.083953 0.18279 1 0.22012 -0.2494 0.94305
-0.059221 0.084022 0.182 1 0.27562 -0.23587 0.93188
-0.060014 0.085939 0.18271 1 0.27239 -0.22615 0.93523
-0.071198 0.08473 0.18234 1 -0.87512 -0.32979 0.35412
-0.072822 0.089898 0.18204 1 -0.93652 -0.20265 0.28611
-0.073249 0.091697 0.1817 1 -0.95799 -0.16433 0.23507
-0.072649 0.090481 0.18289 1 -0.91773 -0.18682 0.35053
-0.073387 0.09271 0.18181 1 -0.95703 -0.15325 0.24619
-0.070668 0.084039 0.18282 1 -0.76949 -0.38026 0.51312
-0.061198 0.086482 0.18317 1 0.24493 -0.22697 0.9426
-0.059538 0.086621 0.18273 1 0.27431 -0.2195 0.93625
-0.072143 0.087046 0.18189 1 -0.91895 -0.26607 0.29109
-0.072363 0.088066 0.18211 1 -0.92622 -0.24804 0.2839
-0.071957 0.087515 0.18281 1 -0.89985 -0.26737 0.34464
-0.059221 0.090918 0.18365 1 0.29213 -0.21467 0.93198
-0.072512 0.089672 0.18281 1 -0.91638 -0.20097 0.34621
-0.072768 0.091427 0.18307 1 -0.92194 -0.17587 0.34511
-0.073183 0.093028 0.1827 1 -0.94249 -0.15293 0.29719
-0.066556 0.083909 0.1836 1 0.13108 -0.27275 0.95311
-0.065663 0.08417 0.18355 1 0.14654 -0.26436 0.95323
-0.067059 0.084501 0.18384 1 0.13229 -0.27453 0.95243
-0.065288 0.085127 0.18374 1 0.16531 -0.24702 0.95481
-0.066087 0.085825 0.18405 1 0.15477 -0.24767 0.9564
-0.064397 0.084998 0.18354 1 0.19732 -0.24717 0.94867
-0.064834 0.086922 0.18411 1 0.1879 -0.24264 0.95175
-0.070995 0.085147 0.18312 1 -0.79727 -0.3275 0.50706
-0.062192 0.087421 0.18364 1 0.23139 -0.24017 0.94275
-0.071564 0.087151 0.18346 1 -0.8346 -0.28025 0.47424
-0.072145 0.088319 0.18292 1 -0.90124 -0.24277 0.35894
-0.072633 0.092686 0.18401 1 -0.91608 -0.16111 0.36721
-0.068714 0.084514 0.18401 1 0.0063815 -0.29976 0.95399
-0.069022 0.085477 0.18431 1 -0.02251 -0.28959 0.95688
-0.068234 0.085301 0.18422 1 0.089563 -0.28175 0.9553
-0.066841 0.08556 0.1841 1 0.14476 -0.25388 0.95634
-0.070344 0.085028 0.18378 1 -0.5469 -0.36699 0.75248
-0.06951 0.084755 0.18407 1 -0.20951 -0.33913 0.91711
-0.071031 0.086725 0.18401 1 -0.68103 -0.30613 0.6652
-0.063439 0.087895 0.18407 1 0.21385 -0.24077 0.94673
-0.061797 0.088245 0.18376 1 0.24179 -0.23589 0.94122
-0.061702 0.089862 0.18412 1 0.24421 -0.22418 0.94345
-0.072392 0.090833 0.18373 1 -0.9069 -0.18823 0.37696
-0.071814 0.089199 0.18415 1 -0.83321 -0.25833 0.48891
-0.071242 0.088617 0.18466 1 -0.58776 -0.26985 0.76271
-0.072522 0.091759 0.18387 1 -0.90727 -0.18179 0.37924
-0.072117 0.091201 0.18451 1 -0.86365 -0.19294 0.4657
-0.072493 0.093279 0.1846 1 -0.88272 -0.18477 0.43205
-0.059874 0.092606 0.18422 1 0.28754 -0.19953 0.93675
-0.060655 0.092084 0.18434 1 0.27439 -0.20429 0.93967
-0.069351 0.086378 0.18457 1 -0.087333 -0.26564 0.96011
-0.066864 0.086597 0.18438 1 0.15235 -0.25376 0.95519
-0.070234 0.086471 0.18443 1 -0.37581 -0.35894 0.85436
-0.068811 0.087131 0.18478 1 0.053052 -0.26234 0.96352
-0.068249 0.087864 0.18493 1 0.11034 -0.25641 0.96025
-0.066888 0.088277 0.18482 1 0.16547 -0.23964 0.95666
-0.06864 0.088732 0.18519 1 0.086832 -0.2438 0.96593
-0.070346 0.088173 0.185 1 -0.30198 -0.25906 0.91744
-0.065296 0.088654 0.18463 1 0.1719 -0.23694 0.95619
-0.06368 0.08984 0.1846 1 0.21086 -0.22705 0.95078
-0.071793 0.091653 0.18523 1 -0.73269 -0.25703 0.63016
-0.063389 0.091607 0.18494 1 0.22781 -0.21308 0.9501
-0.061479 0.091455 0.18443 1 0.24576 -0.21129 0.94602
-0.06963 0.088917 0.1853 1 -0.033875 -0.26628 0.9633
-0.068928 0.089689 0.18547 1 0.068592 -0.25367 0.96486
-0.071382 0.089623 0.18493 1 -0.63212 -0.32376 0.70399
-0.070752 0.090212 0.1855 1 -0.32762 -0.31209 0.89177
-0.068477 0.091188 0.18577 1 0.13503 -0.21526 0.96718
-0.070051 0.090964 0.18582 1 -0.072878 -0.26555 0.96134
-0.066413 0.090085 0.18518 1 0.16426 -0.2228 0.96093
-0.07105 0.091143 0.18567 1 -0.42029 -0.22089 0.88009
-0.067676 0.091454 0.1857 1 0.15743 -0.21262 0.96437
-0.06828 0.093056 0.18615 1 0.14613 -0.20665 0.96744
-0.065958 0.092033 0.18554 1 0.16452 -0.21419 0.96284
-0.064993 0.092119 0.18539 1 0.1809 -0.20631 0.96162
-0.072007 0.093547 0.18552 1 -0.78839 -0.19443 0.58365
-0.071405 0.093188 0.18601 1 -0.54037 -0.16012 0.82605
-0.070642 0.09271 0.18618 1 -0.21554 -0.19008 0.95782
-0.069878 0.093121 0.18634 1 0.0032062 -0.23508 0.97197
-0.048869 0.085906 0.17833 1 0.42641 -0.21544 0.8785
-0.047533 0.087808 0.17807 1 0.47376 -0.19568 0.85864
-0.052257 0.085423 0.17974 1 0.38103 -0.21191 0.89995
-0.050247 0.086083 0.17901 1 0.41538 -0.21883 0.88294
-0.049299 0.087487 0.17891 1 0.42546 -0.20493 0.88147
-0.048258 0.089504 0.17884 1 0.45327 -0.20106 0.8684
-0.049929 0.088126 0.17936 1 0.41667 -0.20875 0.88477
-0.049293 0.090797 0.17967 1 0.43412 -0.20059 0.87824
-0.047504 0.090698 0.17872 1 0.46234 -0.20322 0.8631
-0.047231 0.092639 0.17901 1 0.46904 -0.18756 0.86303
-0.052087 0.087155 0.18008 1 0.38199 -0.21377 0.8991
-0.053719 0.085028 0.18025 1 0.36397 -0.21707 0.90576
-0.054865 0.08633 0.18102 1 0.36122 -0.21875 0.90646
-0.052591 0.089088 0.18076 1 0.37661 -0.21572 0.9009
-0.050062 0.091969 0.1803 1 0.42187 -0.18185 0.88823
-0.052863 0.090969 0.18132 1 0.38281 -0.20755 0.90021
-0.054152 0.089456 0.1815 1 0.36951 -0.22202 0.90232
-0.053282 0.092796 0.1819 1 0.37574 -0.19118 0.90679
-0.050129 0.092981 0.18053 1 0.41941 -0.1782 0.89014
-0.040483 0.087603 0.16927 1 -0.89428 0.29516 0.33636
-0.055453 0.088076 0.18168 1 0.35306 -0.21821 0.9098
-0.054664 0.093295 0.18256 1 0.35942 -0.1808 0.9155
-0.056127 0.091841 0.18281 1 0.34744 -0.19379 0.91746
-0.056856 0.091653 0.18305 1 0.33589 -0.20186 0.92002
-0.055634 0.08626 0.18131 1 0.35745 -0.21701 0.90837
-0.050872 0.093359 0.18096 1 0.41909 -0.17876 0.89017
-0.053913 0.09209 0.18202 1 0.37766 -0.19201 0.90581
-0.053998 0.088413 0.18118 1 0.36881 -0.21758 0.90368
-0.05369 0.091164 0.18172 1 0.37866 -0.20955 0.9015
-0.050669 0.091173 0.18042 1 0.4141 -0.19452 0.8892
-0.051148 0.089461 0.18024 1 0.39477 -0.21504 0.89326
-0.053184 0.088303 0.18082 1 0.37372 -0.21806 0.90155
-0.055295 0.085331 0.18095 1 0.36035 -0.22098 0.90626
-0.055314 0.084271 0.1807 1 0.35629 -0.22399 0.90713
-0.053381 0.084269 0.17993 1 0.36285 -0.22324 0.90471
-0.052855 0.087347 0.18045 1 0.37616 -0.21695 0.9008
-0.046921 0.093494 0.17903 1 0.48138 -0.18101 0.85762
-0.047983 0.092499 0.17939 1 0.46111 -0.18942 0.86689
-0.04805 0.091463 0.17919 1 0.45687 -0.19928 0.86692
-0.049488 0.086497 0.17875 1 0.41176 -0.21793 0.88485
-0.052808 0.084749 0.17982 1 0.37866 -0.21696 0.89975
-0.046113 0.093605 0.17859 1 0.50733 -0.1684 0.84514
-0.047386 0.086867 0.17776 1 0.47904 -0.20628 0.85321
-0.064774 0.092901 0.18552 1 0.1937 -0.20735 0.9589
-0.066608 0.092931 0.18585 1 0.16051 -0.20769 0.96494
-0.069111 0.092579 0.18616 1 0.10284 -0.22293 0.96939
-0.067483 0.092514 0.1859 1 0.15684 -0.21151 0.96471
-0.067337 0.089773 0.18527 1 0.16504 -0.22603 0.96004
-0.069224 0.091563 0.18595 1 0.079213 -0.21775 0.97278
-0.062382 0.09166 0.1847 1 0.2353 -0.21373 0.94813
-0.065591 0.087613 0.18443 1 0.17141 -0.24123 0.95521
-0.067633 0.088678 0.18505 1 0.14923 -0.24247 0.95861
-0.060633 0.091276 0.18416 1 0.27016 -0.20627 0.94046
-0.062918 0.087132 0.18375 1 0.22647 -0.24064 0.94382
-0.062999 0.086287 0.18356 1 0.22168 -0.23653 0.946
-0.063776 0.085791 0.18361 1 0.20845 -0.24439 0.94701
-0.065309 0.086098 0.18399 1 0.16942 -0.24238 0.95527
-0.061007 0.088206 0.18354 1 0.26108 -0.22659 0.93835
-0.060126 0.090646 0.18387 1 0.28588 -0.2146 0.93393
-0.071514 0.085641 0.18239 1 -0.87605 -0.32484 0.35639
-0.060736 0.085665 0.18285 1 0.25881 -0.23036 0.93806
-0.059231 0.084891 0.18222 1 0.27497 -0.23438 0.93245
-0.060901 0.084682 0.18265 1 0.25068 -0.24338 0.93698
-0.064682 0.092953 0.1791 1 0.06378 -0.30489 0.95025
-0.057248 0.093049 0.17744 1 0.30669 -0.30975 0.9
-0.060728 0.092386 0.17824 1 0.21532 -0.29784 0.93002
-0.068205 0.0883 0.17738 1 -0.024847 -0.40843 0.91245
-0.04531 0.092435 0.17785 1 0.52578 -0.17759 0.83188
-0.046338 0.090283 0.17799 1 0.48663 -0.19486 0.8516
-0.045927 0.08956 0.17758 1 0.50279 -0.19786 0.84146
-0.049198 0.084033 0.178 1 0.42706 -0.21915 0.87727
-0.045539 0.085959 0.1765 1 0.50133 -0.20908 0.83962
-0.042958 0.092839 0.17637 1 0.55721 -0.17475 0.81178
-0.053635 0.092363 0.17556 1 0.45328 -0.33482 0.8261
-0.041611 0.093454 0.17556 1 0.57537 -0.16737 0.80059
-0.053043 0.089452 0.17386 1 0.45689 -0.3989 0.79507
-0.055265 0.088951 0.17484 1 0.4342 -0.40587 0.8042
-0.053142 0.08867 0.17353 1 0.44595 -0.40152 0.79994
-0.038761 0.092633 0.17232 1 -0.94948 0.18743 -0.25172
-0.040639 0.085677 0.17252 1 0.81912 -0.27769 0.50192
-0.053164 0.087031 0.17264 1 0.45171 -0.46113 0.76375
-0.053105 0.085482 0.1716 1 0.47878 -0.48531 0.73161
-0.038985 0.091191 0.17194 1 -0.96669 0.22108 -0.12898
-0.045944 0.092448 0.16997 1 0.65255 -0.33251 0.68089
-0.049424 0.093612 0.18033 1 0.42089 -0.18069 0.88894
-0.065084 0.093733 0.18576 1 0.19204 -0.18814 0.96319
-0.070683 0.093685 0.18642 1 -0.21748 -0.23223 0.94804
-0.051509 0.093864 0.18136 1 0.40871 -0.18104 0.89453
-0.058611 0.093844 0.18409 1 0.29633 -0.1993 0.93406
-0.053506 0.09379 0.18219 1 0.3671 -0.18283 0.91203
-0.069086 0.093527 0.18636 1 0.11087 -0.20139 0.97322
-0.056129 0.09356 0.18317 1 0.34705 -0.1865 0.91912
-0.052794 0.093606 0.18187 1 0.37528 -0.18454 0.90836
-0.054144 0.093862 0.18246 1 0.36531 -0.18193 0.91294
-0.062169 0.093621 0.18507 1 0.23006 -0.18758 0.95493
-0.067483 0.093536 0.18612 1 0.15661 -0.20516 0.96612
-0.059971 0.093634 0.18448 1 0.28915 -0.20854 0.93429
-0.059236 0.093239 0.18415 1 0.2954 -0.20281 0.9336
-0.056928 0.09376 0.18351 1 0.33191 -0.1875 0.92449
-0.061462 0.093295 0.18483 1 0.24954 -0.19765 0.94798
-0.065959 0.09378 0.18592 1 0.16471 -0.19908 0.96604
-0.06352 0.09322 0.18531 1 0.21726 -0.19188 0.95707
-0.055323 0.093393 0.18283 1 0.34971 -0.18467 0.91848
-0.064233 0.093481 0.18552 1 0.21299 -0.18835 0.95873
-0.071338 0.094519 0.17929 1 -0.12809 -0.29429 0.94709
-0.041457 0.09424 0.16713 1 0.24654 -0.13175 0.96013
-0.040475 0.094176 0.16714 1 -0.36302 -0.058794 0.92993
-0.039843 0.094056 0.16771 1 -0.80636 0.031161 0.59061
-0.043381 0.095285 0.16861 1 0.66431 -0.23058 0.71101
-0.042908 0.094815 0.16799 1 0.62449 -0.24532 0.74151
-0.039577 0.094789 0.16813 1 -0.87263 0.0471 0.4861
-0.045402 0.094295 0.17022 1 0.68192 -0.22726 0.69523
-0.044743 0.094995 0.16971 1 0.65454 -0.21895 0.72362
-0.046012 0.094782 0.17093 1 0.68669 -0.18903 0.70195
-0.0467 0.094336 0.17146 1 0.63202 -0.26406 0.72858
-0.052752 0.094206 0.17575 1 0.47849 -0.29014 0.82878
-0.038469 0.09402 0.17248 1 -0.95921 0.17833 -0.21933
-0.048235 0.094537 0.17288 1 0.58867 -0.29274 0.7535
-0.050494 0.094768 0.17452 1 0.52338 -0.29412 0.79973
-0.051914 0.094173 0.17523 1 0.502 -0.28789 0.81555
-0.058921 0.094388 0.17842 1 0.25949 -0.28365 0.92315
-0.072824 0.093933 0.17923 1 0.45999 -0.25059 0.85183
-0.071948 0.093909 0.17904 1 0.036768 -0.30153 0.95275
-0.058238 0.094104 0.17812 1 0.28703 -0.3026 0.90887
-0.066689 0.093965 0.1795 1 0.0055003 -0.28169 0.95949
-0.073129 0.094651 0.17968 1 0.63165 -0.19478 0.75038
-0.073696 0.094281 0.18044 1 -0.96465 0.038439 -0.26073
-0.064045 0.094233 0.17945 1 0.10999 -0.27944 0.95384
-0.073699 0.094218 0.18138 1 -0.98977 -0.077478 0.11979
-0.073268 0.093918 0.18286 1 -0.94012 -0.13496 0.31298
-0.060352 0.094127 0.17869 1 0.22013 -0.28484 0.93296
-0.063158 0.093931 0.17923 1 0.14899 -0.26327 0.95315
-0.055317 0.093934 0.17697 1 0.39899 -0.28545 0.87139
-0.04978 0.0945 0.17394 1 0.53843 -0.292 0.79046
-0.038657 0.09402 0.17058 1 -0.95382 0.10319 0.28209
-0.038943 0.094276 0.16977 1 -0.91984 0.12323 0.37244
-0.042316 0.094391 0.16746 1 0.43052 -0.19914 0.88034
-0.04165 0.09516 0.16733 1 0.30813 -0.19737 0.93064
-0.040096 0.095143 0.16742 1 -0.54811 -0.14759 0.82328
-0.040871 0.094935 0.16714 1 -0.051976 -0.13882 0.98895
-0.043493 0.094242 0.16837 1 0.6698 -0.23444 0.70456
-0.042328 0.095345 0.16771 1 0.50179 -0.2236 0.83559
-0.044072 0.094698 0.16905 1 0.64642 -0.2243 0.72927
-0.039263 0.094545 0.16893 1 -0.9179 0.1015 0.38362
-0.039277 0.095365 0.16866 1 -0.90305 0.077116 0.42256
-0.038963 0.095091 0.16946 1 -0.91597 0.10939 0.38604
-0.044742 0.094133 0.16955 1 0.67085 -0.2398 0.70175
-0.045328 0.095259 0.17035 1 0.68249 -0.26304 0.68192
-0.046071 0.09406 0.17081 1 0.66202 -0.2801 0.69518
-0.038676 0.094904 0.17022 1 -0.9359 0.096614 0.33876
-0.038431 0.094306 0.17154 1 -0.99212 0.11383 0.052408
-0.047402 0.09447 0.17212 1 0.62845 -0.28394 0.72417
-0.038854 0.093904 0.17322 1 0.81726 -0.17632 0.54864
-0.049128 0.094173 0.1734 1 0.55227 -0.30514 0.77582
-0.039828 0.094167 0.17427 1 0.65644 -0.13409 0.74237
-0.050643 0.093878 0.1743 1 0.52993 -0.28604 0.79834
-0.051189 0.094199 0.17478 1 0.5231 -0.27965 0.80508
-0.053656 0.094201 0.17624 1 0.44478 -0.28454 0.84924
-0.056012 0.094227 0.17736 1 0.36082 -0.28765 0.88717
-0.068328 0.094354 0.17959 1 -0.011953 -0.26547 0.96404
-0.069388 0.094195 0.1795 1 -0.061755 -0.27701 0.95888
-0.06573 0.094125 0.17953 1 0.035899 -0.27884 0.95967
-0.070398 0.094572 0.17951 1 -0.1545 -0.26841 0.95083
-0.072201 0.094881 0.17937 1 0.13786 -0.32035 0.93722
-0.052808 0.096206 0.18236 1 0.38568 -0.16271 0.90817
-0.049311 0.095587 0.18067 1 0.41637 -0.18124 0.89095
-0.049588 0.094612 0.18061 1 0.41785 -0.17663 0.89118
-0.045198 0.098848 0.17905 1 0.53856 -0.14491 0.83003
-0.044197 0.099584 0.17851 1 0.55822 -0.1403 0.81775
-0.058241 0.094607 0.18413 1 0.31445 -0.18997 0.93007
-0.062472 0.10211 0.18083 1 0.1516 -0.13952 0.97854
-0.064008 0.10211 0.18099 1 0.074783 -0.11854 0.99013
-0.069369 0.098218 0.18044 1 -0.030898 -0.16436 0.98592
-0.069121 0.094437 0.18654 1 0.1108 -0.19406 0.97471
-0.058715 0.095344 0.18444 1 0.30361 -0.18855 0.93395
-0.0441 0.098708 0.17031 1 0.71975 -0.20144 0.66437
-0.042849 0.10222 0.16973 1 0.70021 -0.13498 0.70106
-0.052453 0.095325 0.18205 1 0.38317 -0.16376 0.90905
-0.038002 0.097835 0.17273 1 -0.97836 0.1048 -0.17839
-0.0519 0.10051 0.18265 1 0.38919 -0.12163 0.91309
-0.053388 0.097972 0.18292 1 0.38209 -0.15342 0.9113
-0.051113 0.10091 0.18237 1 0.39224 -0.12093 0.91188
-0.048263 0.10117 0.18113 1 0.4284 -0.10148 0.89787
-0.048651 0.10341 0.18151 1 0.43196 -0.052206 0.90038
-0.047932 0.10044 0.18088 1 0.43998 -0.10585 0.89175
-0.047389 0.10116 0.18069 1 0.45777 -0.10215 0.88318
-0.04364 0.10372 0.17865 1 0.55336 -0.044332 0.83176
-0.066439 0.10238 0.18729 1 0.15391 -0.078741 0.98494
-0.060553 0.10147 0.18588 1 0.26051 -0.096596 0.96063
-0.062318 0.098623 0.18597 1 0.22515 -0.13884 0.96438
-0.062304 0.098536 0.18021 1 0.16876 -0.19501 0.96617
-0.047716 0.096292 0.18004 1 0.4693 -0.18256 0.86396
-0.050209 0.094015 0.18078 1 0.4187 -0.18168 0.88977
-0.048487 0.095208 0.18021 1 0.43227 -0.18181 0.88323
-0.048586 0.096188 0.18046 1 0.42951 -0.18279 0.88437
-0.058184 0.095184 0.17843 1 0.28683 -0.27165 0.91866
-0.070804 0.098007 0.18025 1 -0.16121 -0.18219 0.96996
-0.062343 0.094488 0.18528 1 0.22408 -0.18167 0.95749
-0.04772 0.095648 0.17991 1 0.47271 -0.1775 0.86316
-0.053165 0.097065 0.18266 1 0.38851 -0.16069 0.90732
-0.052306 0.096936 0.18227 1 0.38409 -0.15919 0.90947
-0.063283 0.10169 0.18087 1 0.10355 -0.14412 0.98413
-0.056841 0.095302 0.17803 1 0.33196 -0.2709 0.90356
-0.044534 0.098727 0.17859 1 0.55132 -0.14426 0.82173
-0.043756 0.098864 0.17808 1 0.56111 -0.14231 0.81542
-0.041836 0.096094 0.16765 1 0.40252 -0.16861 0.89975
-0.040944 0.095799 0.1673 1 0.16374 -0.20347 0.96529
-0.041303 0.097756 0.16773 1 0.3262 -0.15016 0.9333
-0.042724 0.09705 0.16846 1 0.6549 -0.2051 0.72735
-0.042029 0.096999 0.16793 1 0.48405 -0.16393 0.85955
-0.039571 0.097771 0.168 1 -0.76105 0.0060333 0.64867
-0.061919 0.097808 0.17998 1 0.1808 -0.21105 0.96061
-0.044021 0.095604 0.16929 1 0.66525 -0.23125 0.70991
-0.039001 0.095851 0.16919 1 -0.91583 0.052417 0.39813
-0.043847 0.097489 0.16965 1 0.66582 -0.17967 0.72416
-0.044232 0.094607 0.1776 1 0.53732 -0.16823 0.82643
-0.038723 0.095864 0.16988 1 -0.93087 0.058685 0.36061
-0.044639 0.095933 0.17 1 0.69845 -0.24468 0.67253
-0.044629 0.096892 0.17027 1 0.70446 -0.16051 0.69136
-0.039117 0.09803 0.16883 1 -0.91507 -0.023405 0.40261
-0.041105 0.09605 0.17572 1 0.59596 -0.15563 0.78779
-0.070884 0.10376 0.18115 1 0.13198 -0.1029 0.9859
-0.04224 0.09407 0.17614 1 0.56552 -0.16925 0.80719
-0.045898 0.095497 0.17105 1 0.67065 -0.33186 0.6634
-0.064832 0.10199 0.18103 1 0.047561 -0.11602 0.99211
-0.046285 0.09689 0.17196 1 0.68201 -0.17716 0.70956
-0.068413 0.099983 0.1807 1 -0.011302 -0.15439 0.98795
-0.051793 0.097862 0.18222 1 0.38983 -0.15124 0.90838
-0.038318 0.096115 0.17109 1 -0.97075 0.059198 0.23268
-0.038247 0.098102 0.17118 1 -0.95806 0.0048391 0.28654
-0.038262 0.095413 0.1717 1 -0.98916 0.11063 0.09655
-0.048122 0.095417 0.17306 1 0.59439 -0.26942 0.7577
-0.0382 0.095915 0.1725 1 -0.97501 0.15764 -0.15652
-0.047398 0.095936 0.17272 1 0.60314 -0.27165 0.74995
-0.047861 0.096439 0.17321 1 0.60152 -0.20469 0.77219
-0.037959 0.098823 0.1727 1 -0.9965 -0.0035664 -0.083503
-0.068616 0.095054 0.1866 1 0.12943 -0.19828 0.97156
-0.038446 0.095346 0.173 1 0.89742 -0.17027 0.40699
-0.048515 0.095962 0.17356 1 0.58605 -0.259 0.76776
-0.038336 0.097479 0.17353 1 0.88293 -0.12763 0.45183
-0.039839 0.0957 0.17461 1 0.62586 -0.18394 0.75793
-0.049738 0.095319 0.17426 1 0.53504 -0.28081 0.79679
-0.03912 0.095881 0.17405 1 0.69274 -0.18016 0.69832
-0.04992 0.096134 0.17462 1 0.53398 -0.24596 0.80893
-0.049292 0.096816 0.17441 1 0.53864 -0.25556 0.80284
-0.038651 0.096693 0.17376 1 0.737 -0.16999 0.65417
-0.050129 0.096894 0.17498 1 0.53216 -0.25621 0.80695
-0.039728 0.09729 0.17488 1 0.61126 -0.16879 0.77322
-0.040988 0.094201 0.17525 1 0.61663 -0.1421 0.77432
-0.051398 0.095763 0.17545 1 0.51191 -0.2722 0.81477
-0.050738 0.096435 0.17524 1 0.52965 -0.26102 0.80705
-0.052952 0.095963 0.17644 1 0.46216 -0.2688 0.84508
-0.043618 0.095296 0.17734 1 0.54766 -0.1644 0.82039
-0.042279 0.097002 0.17671 1 0.56014 -0.15114 0.81449
-0.051512 0.097585 0.17611 1 0.52128 -0.22764 0.82246
-0.040971 0.098088 0.17603 1 0.61314 -0.13869 0.7777
-0.055007 0.096382 0.17758 1 0.39644 -0.2317 0.88834
-0.055014 0.098046 0.17799 1 0.39131 -0.21273 0.89533
-0.040372 0.098358 0.16774 1 -0.1959 -0.16704 0.96629
-0.04202 0.099037 0.1683 1 0.58552 -0.16277 0.79415
-0.040487 0.10051 0.168 1 -0.028798 -0.15018 0.98824
-0.042402 0.10079 0.16902 1 0.66724 -0.12814 0.73374
-0.041755 0.10062 0.16847 1 0.51455 -0.16184 0.84205
-0.039325 0.099622 0.16847 1 -0.89863 -0.06961 0.43315
-0.03967 0.10025 0.16818 1 -0.5857 -0.14782 0.79694
-0.042781 0.098669 0.16895 1 0.68919 -0.16526 0.70548
-0.071087 0.096245 0.1798 1 -0.16264 -0.21955 0.96195
-0.042684 0.1015 0.16943 1 0.68167 -0.13191 0.71967
-0.041803 0.10305 0.16907 1 0.48368 -0.19743 0.85269
-0.039802 0.10212 0.16852 1 -0.44655 -0.26752 0.85383
-0.039223 0.10164 0.16904 1 -0.87842 -0.070698 0.47263
-0.041277 0.10385 0.169 1 0.40429 -0.18795 0.89511
-0.039356 0.10267 0.16913 1 -0.82997 -0.12973 0.54251
-0.039534 0.10365 0.16918 1 -0.74765 -0.13825 0.64955
-0.038835 0.098223 0.16971 1 -0.92796 -0.0643 0.3671
-0.0432 0.099548 0.16961 1 0.70849 -0.16238 0.68678
-0.039013 0.099744 0.16945 1 -0.95212 -0.052943 0.3011
-0.039051 0.10223 0.16984 1 -0.95086 -0.099095 0.29334
-0.0432 0.10361 0.17037 1 0.6952 -0.11234 0.70998
-0.045688 0.097419 0.17148 1 0.70586 -0.2235 0.67217
-0.04468 0.098397 0.1709 1 0.70993 -0.22609 0.667
-0.038492 0.098634 0.17051 1 -0.92491 -0.044602 0.37755
-0.045099 0.09897 0.17142 1 0.69146 -0.10992 0.714
-0.044306 0.10022 0.17077 1 0.70015 -0.131 0.70188
-0.038445 0.10029 0.17095 1 -0.91234 -0.090296 0.39936
-0.043384 0.10147 0.17016 1 0.71329 -0.13614 0.68752
-0.038757 0.10097 0.17046 1 -0.91913 -0.095845 0.38211
-0.043791 0.10206 0.1707 1 0.72905 -0.15422 0.66687
-0.039053 0.10371 0.17069 1 -0.94473 -0.19601 0.26281
-0.04555 0.099469 0.17191 1 0.70674 -0.10114 0.70021
-0.044839 0.10069 0.17146 1 0.71925 -0.20282 0.66449
-0.038199 0.10111 0.17162 1 -0.94452 -0.079493 0.31868
-0.044296 0.10187 0.1713 1 0.74067 -0.15458 0.65385
-0.038505 0.10221 0.17134 1 -0.91015 -0.14151 0.38936
-0.038577 0.10385 0.17201 1 -0.90818 -0.23558 0.346
-0.038009 0.099303 0.17197 1 -0.9793 -0.0055163 0.20235
-0.046467 0.098482 0.17262 1 0.65231 -0.24554 0.71708
-0.046826 0.099055 0.17311 1 0.66387 -0.13942 0.73473
-0.04547 0.10105 0.17223 1 0.67534 -0.19565 0.71108
-0.045748 0.10264 0.17281 1 0.69294 -0.052174 0.71911
-0.038145 0.10185 0.17212 1 -0.96071 -0.12322 0.24869
-0.047618 0.097298 0.17322 1 0.64335 -0.20974 0.73628
-0.038012 0.10025 0.17328 1 -0.98229 0.00090902 -0.18738
-0.046715 0.1 0.17313 1 0.67157 -0.12729 0.72992
-0.046858 0.10172 0.17364 1 0.62001 -0.16491 0.76707
-0.03811 0.10253 0.17266 1 -0.98281 -0.13513 0.1258
-0.048034 0.097896 0.17379 1 0.61438 -0.2297 0.75483
-0.03857 0.098988 0.17406 1 0.79473 -0.081095 0.60153
-0.038034 0.10109 0.17346 1 -0.98206 0.0055922 -0.1885
-0.038681 0.098098 0.17412 1 0.77113 -0.088784 0.63046
-0.048944 0.09896 0.17469 1 0.59154 -0.16181 0.78988
-0.043802 0.099472 0.17019 1 0.68987 -0.12286 0.71344
-0.042205 0.10232 0.16915 1 0.59838 -0.18252 0.78015
-0.047519 0.10122 0.17406 1 0.61623 -0.14279 0.77451
-0.03848 0.10116 0.17434 1 0.78982 -0.05964 0.61043
-0.046906 0.10343 0.17393 1 0.66953 -0.035725 0.74192
-0.038116 0.10262 0.17348 1 0.98155 0.090544 0.16842
-0.049332 0.098151 0.17486 1 0.57867 -0.1848 0.79435
-0.039111 0.099495 0.17472 1 0.67864 -0.12756 0.72331
-0.049385 0.099584 0.17515 1 0.57231 -0.15157 0.80591
-0.048172 0.10059 0.17449 1 0.6021 -0.13742 0.7865
-0.048198 0.1016 0.17466 1 0.60384 -0.12346 0.78749
-0.039084 0.10107 0.17501 1 0.69504 -0.091179 0.71317
-0.038746 0.10186 0.17472 1 0.74157 -0.02016 0.67057
-0.048516 0.10353 0.17514 1 0.58058 -0.083503 0.80991
-0.038734 0.1034 0.17476 1 0.80984 -0.0065233 0.58662
-0.050921 0.098458 0.17593 1 0.5359 -0.19644 0.82111
-0.050192 0.0982 0.17542 1 0.52795 -0.20191 0.82493
-0.049929 0.10012 0.17561 1 0.55197 -0.15093 0.82009
-0.040148 0.10024 0.1757 1 0.59642 -0.13691 0.79091
-0.049074 0.10039 0.1751 1 0.55718 -0.16033 0.81476
-0.039433 0.1018 0.17536 1 0.65205 -0.063722 0.75549
-0.048962 0.1019 0.17531 1 0.57816 -0.1042 0.80924
-0.039361 0.10329 0.17543 1 0.69937 -0.069633 0.71136
-0.050513 0.10058 0.1761 1 0.56296 -0.14714 0.81328
-0.040885 0.10003 0.17625 1 0.61393 -0.11739 0.78059
-0.041745 0.10146 0.17706 1 0.59116 -0.097061 0.80069
-0.04974 0.10211 0.17583 1 0.54244 -0.10617 0.83336
-0.040211 0.10173 0.17592 1 0.589 -0.083787 0.80378
-0.040882 0.10327 0.17664 1 0.61629 -0.10846 0.78001
-0.053182 0.097784 0.1771 1 0.42191 -0.23197 0.87646
-0.04255 0.098651 0.17721 1 0.55373 -0.15094 0.8189
-0.052305 0.10018 0.17716 1 0.44727 -0.15353 0.88112
-0.052047 0.10265 0.17738 1 0.50735 -0.090121 0.85701
-0.054166 0.10009 0.17808 1 0.41479 -0.17283 0.89335
-0.053233 0.10172 0.1779 1 0.43567 -0.12278 0.89169
-0.042519 0.10296 0.17783 1 0.5776 -0.087635 0.8116
-0.046023 0.096086 0.17154 1 0.69048 -0.26647 0.67249
-0.042937 0.094675 0.17674 1 0.56079 -0.16666 0.81101
-0.05985 0.09648 0.17927 1 0.22993 -0.23837 0.94356
-0.058078 0.096292 0.17871 1 0.29209 -0.24842 0.92356
-0.058476 0.097163 0.17906 1 0.27929 -0.22527 0.93341
-0.067923 0.095225 0.17983 1 -0.003771 -0.26027 0.96553
-0.073486 0.095329 0.1802 1 0.80519 -0.13081 0.57841
-0.072773 0.095641 0.17975 1 0.40934 -0.26989 0.87155
-0.071222 0.09529 0.17954 1 -0.12851 -0.25503 0.95835
-0.065345 0.096298 0.18006 1 0.039342 -0.2261 0.97331
-0.062194 0.096285 0.17968 1 0.18409 -0.23842 0.95355
-0.07176 0.096933 0.17989 1 0.024042 -0.19493 0.98052
-0.069572 0.096244 0.18006 1 -0.068865 -0.21309 0.9746
-0.071564 0.097944 0.18013 1 -0.017919 -0.16888 0.98547
-0.07375 0.095862 0.18093 1 -0.94623 0.12416 -0.29873
-0.073656 0.096825 0.18108 1 -0.93442 0.22336 -0.27745
-0.068495 0.097916 0.1804 1 -0.0069302 -0.16765 0.98582
-0.064678 0.097893 0.18038 1 0.055876 -0.16927 0.98398
-0.073739 0.095182 0.18165 1 -0.98938 -0.061413 0.13174
-0.073772 0.096116 0.18173 1 -0.99736 0.040901 0.059975
-0.073332 0.095977 0.18323 1 -0.94424 -0.068215 0.32212
-0.073578 0.096306 0.1825 1 -0.96335 -0.022213 0.26734
-0.072787 0.094295 0.18431 1 -0.92217 -0.12326 0.36661
-0.056593 0.095492 0.18373 1 0.33468 -0.18339 0.92431
-0.060811 0.093954 0.18479 1 0.25664 -0.19761 0.94609
-0.059016 0.096104 0.18468 1 0.3127 -0.16464 0.93548
-0.057489 0.097044 0.18434 1 0.32094 -0.15399 0.9345
-0.072714 0.096315 0.18491 1 -0.91539 -0.089144 0.39257
-0.072514 0.094844 0.18512 1 -0.86371 -0.091471 0.49562
-0.060164 0.096872 0.18517 1 0.26248 -0.15908 0.95173
-0.066796 0.094013 0.18611 1 0.16203 -0.19336 0.96765
-0.072077 0.094339 0.18565 1 -0.76335 -0.16459 0.62467
-0.062344 0.096197 0.1856 1 0.22552 -0.17767 0.9579
-0.072361 0.096637 0.18575 1 -0.86189 -0.082005 0.50042
-0.069636 0.095194 0.18675 1 0.052095 -0.20303 0.97779
-0.071346 0.095222 0.1865 1 -0.45278 -0.24193 0.85817
-0.066188 0.097362 0.18662 1 0.17603 -0.16209 0.97095
-0.071949 0.09597 0.1862 1 -0.72294 -0.12243 0.67998
-0.064225 0.097016 0.18618 1 0.21768 -0.16632 0.96174
-0.071876 0.097007 0.18648 1 -0.6935 -0.066424 0.71739
-0.07053 0.095569 0.1868 1 -0.12407 -0.2179 0.96805
-0.071195 0.097236 0.18696 1 -0.39848 -0.1211 0.90915
-0.0681 0.096638 0.18684 1 0.15114 -0.17529 0.97285
-0.070282 0.097178 0.18715 1 -0.080952 -0.14195 0.98656
-0.045798 0.097523 0.17918 1 0.51293 -0.18049 0.83924
-0.050248 0.097156 0.18143 1 0.40878 -0.17411 0.89587
-0.054839 0.095048 0.18297 1 0.35802 -0.1867 0.91486
-0.052126 0.098634 0.1825 1 0.39302 -0.1428 0.90837
-0.055354 0.096469 0.18348 1 0.35286 -0.16828 0.92042
-0.056802 0.097732 0.17864 1 0.33175 -0.22001 0.91735
-0.056088 0.099681 0.1788 1 0.35297 -0.16633 0.92073
-0.056193 0.10337 0.17932 1 0.34113 -0.083011 0.93634
-0.059944 0.0984 0.17975 1 0.22282 -0.19942 0.95424
-0.061091 0.099993 0.18027 1 0.18855 -0.15758 0.96934
-0.059263 0.10009 0.17989 1 0.22777 -0.14985 0.96211
-0.05794 0.099102 0.17933 1 0.30182 -0.19969 0.93222
-0.059104 0.10153 0.18009 1 0.25324 -0.1368 0.95768
-0.057838 0.10281 0.17984 1 0.30352 -0.087132 0.94883
-0.073672 0.097747 0.18143 1 -0.96213 0.14689 -0.22962
-0.070234 0.098544 0.18045 1 -0.11742 -0.17276 0.97794
-0.063172 0.098543 0.18035 1 0.12051 -0.18228 0.97583
-0.065467 0.099236 0.18061 1 0.027249 -0.16494 0.98593
-0.072799 0.099271 0.18077 1 0.57835 -0.24525 0.77805
-0.072143 0.099947 0.18064 1 0.32889 -0.21515 0.91953
-0.067971 0.10077 0.18085 1 -0.023076 -0.16038 0.98679
-0.071415 0.10076 0.18067 1 0.10578 -0.21409 0.97107
-0.07064 0.10039 0.18065 1 -0.092826 -0.1371 0.9862
-0.069172 0.10005 0.18072 1 -0.020336 -0.14321 0.98948
-0.065745 0.10009 0.18077 1 0.026626 -0.16871 0.98531
-0.062505 0.10122 0.1807 1 0.12804 -0.15577 0.97946
-0.060655 0.10169 0.18043 1 0.18274 -0.14412 0.97254
-0.061064 0.10329 0.18073 1 0.20173 -0.087471 0.97553
-0.073366 0.099446 0.18154 1 -0.8965 0.12959 -0.42367
-0.072551 0.10183 0.1813 1 0.58026 -0.20709 0.78766
-0.066543 0.10159 0.181 1 -0.0039417 -0.12631 0.99198
